# 3D point list with the following format:
# POINT3D_ID, X, Y, Z, R, G, B, ERROR, TRACK[] as (IMAGE_ID, POINT2D_IDX)
4071 -35.262289 32.998283 65.344955 89 89 91 0.0
4072 13.471520 45.963413 -31.994234 218 222 220 0.0
4073 106.651539 9.115785 -66.031629 234 230 234 0.0
4074 25.724357 -64.660843 69.717853 243 241 241 0.0
4075 -12.604168 35.388175 -24.245655 67 66 68 0.0
4076 -53.883540 51.046384 17.971389 62 64 67 0.0
4077 63.540736 81.168198 82.673712 198 202 200 0.0
4078 9.160337 -20.628225 96.081183 212 215 211 0.0
4079 105.760029 95.807305 82.961907 174 170 171 0.0
4080 -58.247924 -26.258219 119.502876 170 166 171 0.0
4081 -9.460913 95.333596 -21.636853 190 188 193 0.0
4082 49.140115 80.988789 -44.900646 168 170 163 0.0
4083 83.053800 49.348641 109.709354 213 215 208 0.0
4084 56.878266 25.175431 118.870319 79 75 74 0.0
4085 79.506580 109.743577 -32.544066 141 145 146 0.0
4086 96.457487 106.458150 3.709320 22 21 22 0.0
4087 -2.425626 -5.308864 -47.669544 115 111 119 0.0
4088 20.683257 75.960404 -38.592209 195 192 195 0.0
4089 111.823212 8.035485 -15.101842 24 29 19 0.0
4090 -45.825984 96.550386 67.375726 97 94 100 0.0
4091 67.671756 -55.424914 -62.805183 131 134 135 0.0
4092 29.639494 47.221127 36.192631 73 70 78 0.0
4093 12.048119 67.232569 -43.291258 62 60 60 0.0
4094 -5.752516 8.173095 45.215438 49 45 47 0.0
4095 82.886300 -68.552338 24.777631 192 194 197 0.0
4096 116.115304 -48.781899 98.333741 221 221 221 0.0
4097 20.847311 39.172846 -7.831043 91 89 94 0.0
4098 20.866404 -62.707260 28.450123 230 235 227 0.0
4099 -64.729361 59.670749 -4.479389 6 1 7 0.0
4100 109.080225 -17.791179 -37.347689 159 161 162 0.0
4101 -9.906391 101.501739 -31.886811 7 7 2 0.0
4102 107.944169 -38.723383 -26.466225 147 152 150 0.0
4103 117.217460 84.571084 54.314840 225 229 227 0.0
4104 -9.393401 113.990192 77.471487 120 124 125 0.0
4105 -57.680513 13.280566 74.846712 102 99 106 0.0
4106 71.684877 48.173353 106.104311 195 194 190 0.0
4107 -57.394466 115.051806 70.079640 28 32 26 0.0
4108 -34.200296 92.540937 28.040613 226 222 231 0.0
4109 112.298132 -22.161439 26.660073 212 210 216 0.0
4110 101.603886 -67.150086 -49.227334 243 247 243 0.0
4111 -54.134325 -47.468491 98.001468 74 72 79 0.0
4112 -64.515635 72.477664 29.565042 181 178 176 0.0
4113 -5.476266 -2.801550 92.106447 143 141 148 0.0
4114 22.637789 50.270272 -17.882441 124 121 122 0.0
4115 113.566906 69.251321 41.991242 215 216 217 0.0
4116 -11.740265 70.560233 113.600953 232 231 237 0.0
4117 93.569469 -26.808253 44.309256 90 89 90 0.0
4118 -56.818902 -18.958489 46.897685 54 51 58 0.0
4119 -35.723733 -50.066577 -12.965437 73 78 73 0.0
4120 -64.299836 -31.634382 -1.988554 79 74 74 0.0
4121 -55.117994 -1.750937 49.313131 61 57 62 0.0
4122 -60.853127 -53.753328 -42.234950 242 245 243 0.0
4123 106.593704 0.370414 105.963055 197 200 199 0.0
4124 82.104134 -44.495741 76.636637 193 196 197 0.0
4125 101.295627 0.430242 32.021965 30 26 34 0.0
4126 24.028295 -43.967651 104.753929 163 161 158 0.0
4127 -48.938584 -33.867653 -29.216377 14 13 18 0.0
4128 -25.966327 95.537188 -0.360751 141 146 137 0.0
4129 17.471165 61.983919 103.669929 69 74 65 0.0
4130 30.559927 -49.363293 95.842304 95 95 93 0.0
4131 118.892061 36.025099 5.040649 89 91 89 0.0
4132 71.407602 20.688956 -5.921653 221 219 221 0.0
4133 96.385164 119.055813 66.034945 123 119 118 0.0
4134 21.565315 116.716835 -10.798242 179 175 175 0.0
4135 75.040137 14.717595 106.628458 142 140 147 0.0
4136 -19.282296 68.141035 76.628215 137 136 142 0.0
4137 75.476992 111.784193 -14.354788 52 57 50 0.0
4138 -55.507758 -7.649328 89.395634 30 35 30 0.0
4139 -9.352308 -2.593701 -43.621593 151 153 154 0.0
4140 -3.308621 38.921946 -51.570720 131 135 130 0.0
4141 -12.034367 83.633460 -10.252342 196 199 200 0.0
4142 12.708694 92.641273 112.361654 122 122 122 0.0
4143 115.832601 28.767362 -33.320488 104 102 109 0.0
4144 91.373372 28.828239 -53.729636 230 229 232 0.0
4145 46.651358 61.667047 113.532068 168 163 166 0.0
4146 40.154101 -46.762717 -58.016418 26 25 23 0.0
4147 -69.387806 97.111913 -40.269764 248 252 250 0.0
4148 66.982804 -39.467490 115.256302 198 197 203 0.0
4149 -1.378021 92.448772 -20.456306 199 197 201 0.0
4150 38.107728 98.330304 71.551107 140 135 144 0.0
4151 65.036950 44.939075 -48.365224 133 133 129 0.0
4152 -14.075505 -40.204595 103.424156 20 23 17 0.0
4153 -13.972658 100.589511 3.076348 228 228 233 0.0
4154 114.868922 105.000047 95.088249 54 50 57 0.0
4155 -35.489985 33.607779 21.258219 235 236 230 0.0
4156 109.432598 -31.746685 50.819111 126 130 125 0.0
4157 -58.305404 98.901280 94.266039 194 194 189 0.0
4158 76.977949 -39.840700 94.605691 67 69 65 0.0
4159 113.854551 84.586987 44.201925 240 242 238 0.0
4160 -43.353358 52.941160 7.737791 28 30 33 0.0
4161 21.795481 24.220826 -48.748800 55 52 53 0.0
4162 89.683692 54.835022 117.129963 58 55 61 0.0
4163 54.201018 45.090295 -0.410247 109 104 110 0.0
4164 83.594821 100.128120 -41.152014 225 223 229 0.0
4165 55.172770 68.544123 -33.029957 220 221 221 0.0
4166 -67.439673 83.920607 -62.250594 249 253 249 0.0
4167 8.088552 87.616858 -19.440625 239 242 237 0.0
4168 -38.280299 98.768419 -18.119398 122 118 125 0.0
4169 116.464850 71.848262 75.136275 74 77 74 0.0
4170 68.155120 -0.148534 21.423221 114 111 110 0.0
4171 81.547955 76.522642 95.475783 130 125 129 0.0
4172 41.763273 -66.225296 -24.305659 102 99 104 0.0
4173 109.504187 62.494576 -24.588795 22 17 24 0.0
4174 27.326179 69.016434 116.410441 248 246 251 0.0
4175 98.234566 11.683525 61.935094 22 21 21 0.0
4176 -18.951457 0.316233 74.814833 150 148 146 0.0
4177 87.812543 29.551307 -39.198434 40 45 44 0.0
4178 69.350145 -23.640396 -25.445785 137 134 139 0.0
4179 17.781308 102.910214 -38.806448 42 47 47 0.0
4180 83.454275 -14.968156 -56.334416 20 15 20 0.0
4181 -13.986533 82.843380 -7.675569 164 161 163 0.0
4182 28.649446 -21.663441 47.119687 242 245 243 0.0
4183 51.863199 75.386406 39.954557 99 95 96 0.0
4184 1.288810 -20.533818 -16.924722 69 68 72 0.0
4185 -1.271473 3.216249 60.098568 39 38 41 0.0
4186 98.363216 -50.426497 -63.045402 161 165 166 0.0
4187 -1.185080 29.417576 83.667010 101 105 106 0.0
4188 73.825641 103.870932 117.125759 111 114 107 0.0
4189 -34.715778 7.519173 -18.096056 66 64 69 0.0
4190 -22.363608 110.888891 -33.841619 136 137 135 0.0
4191 39.222768 115.256849 -5.553526 49 52 49 0.0
4192 118.808101 28.604590 77.810913 199 195 204 0.0
4193 106.708617 -20.330904 104.543517 161 162 166 0.0
4194 -0.981695 117.086554 -45.690542 186 187 185 0.0
4195 -66.886103 80.198760 -30.185143 50 54 49 0.0
4196 18.655812 -11.748396 71.219378 28 29 31 0.0
4197 -42.836392 -46.516597 19.574093 120 117 116 0.0
4198 5.477618 89.371988 85.917132 147 145 150 0.0
4199 -5.744474 54.832735 -60.041914 141 143 144 0.0
4200 69.707132 -27.457253 -4.483622 51 47 49 0.0
4201 89.328320 85.832818 -41.501534 74 77 78 0.0
4202 -64.112931 -31.637782 56.834307 206 210 204 0.0
4203 -35.125469 84.608396 -17.901611 25 27 20 0.0
4204 -22.826966 74.288403 -69.454090 92 97 87 0.0
4205 70.598867 111.341299 -17.625444 165 166 166 0.0
4206 -26.917186 64.336870 30.579381 96 96 96 0.0
4207 75.476147 -38.406434 23.478608 103 106 106 0.0
4208 -67.618370 85.318785 84.576407 210 214 209 0.0
4209 57.166290 75.966120 58.967734 112 113 115 0.0
4210 52.316869 77.473699 -40.893557 34 30 39 0.0
4211 -49.725507 87.231791 -44.895132 82 80 78 0.0
4212 43.370391 -35.535418 58.248590 212 211 207 0.0
4213 -26.189116 1.949014 -26.885766 161 164 160 0.0
4214 25.100468 -33.361893 -62.154241 97 99 100 0.0
4215 68.171819 26.069041 63.644728 175 179 172 0.0
4216 -50.438977 25.927104 38.952346 77 76 75 0.0
4217 52.184525 -50.482141 -16.700779 105 103 106 0.0
4218 21.496643 92.522262 26.848981 247 251 247 0.0
4219 6.673353 -11.115221 44.078769 62 57 64 0.0
4220 49.144088 -26.887798 -33.532208 35 32 35 0.0
4221 -0.727360 76.495808 -42.305566 154 157 157 0.0
4222 70.691392 8.241060 -18.940107 81 86 83 0.0
4223 78.983209 75.790077 3.880572 74 75 74 0.0
4224 94.287516 113.085087 82.413247 219 224 218 0.0
4225 -31.332819 26.623535 103.274851 206 207 210 0.0
4226 31.651627 45.197048 87.464962 218 219 218 0.0
4227 -60.906874 -34.380283 -10.732792 35 37 36 0.0
4228 59.452490 83.683432 -42.090844 141 146 139 0.0
4229 58.474478 -21.119976 24.630230 44 40 42 0.0
4230 -10.659076 108.769901 4.998208 113 116 116 0.0
4231 -61.797803 -12.602134 -8.592046 178 182 181 0.0
4232 57.840537 52.089267 118.922391 100 97 100 0.0
4233 8.583122 2.924595 99.956506 72 67 77 0.0
4234 16.704549 96.845567 -35.691118 6 4 10 0.0
4235 -56.614020 -13.801624 16.222362 195 191 193 0.0
4236 -4.924828 48.253223 18.350204 46 46 41 0.0
4237 91.858049 -16.634443 107.141293 16 17 12 0.0
4238 -69.278281 104.985066 81.936302 58 55 53 0.0
4239 117.746316 103.017041 -63.672359 56 53 57 0.0
4240 39.211575 89.842805 12.506681 157 152 157 0.0
4241 -4.075998 39.157863 42.781010 153 156 157 0.0
4242 -47.347502 -62.261380 -38.427922 85 85 88 0.0
4243 72.161298 -66.921740 9.429245 9 10 8 0.0
4244 104.059681 -8.536855 8.610832 183 184 186 0.0
4245 22.911429 59.314903 30.041722 136 132 139 0.0
4246 61.061311 14.891955 117.228784 85 90 86 0.0
4247 57.080543 -22.788954 70.700735 169 168 170 0.0
4248 46.083320 8.127112 10.601525 147 148 143 0.0
4249 31.375588 25.090254 72.111103 177 173 181 0.0
4250 52.556333 -45.090885 -37.687550 201 200 202 0.0
4251 117.627020 59.134162 116.446556 129 127 125 0.0
4252 90.392810 59.817036 116.910883 177 178 177 0.0
4253 -30.473605 68.890891 72.096355 154 155 156 0.0
4254 -36.358313 -13.509612 101.113901 237 241 235 0.0
4255 24.762313 39.949521 -25.572720 96 94 100 0.0
4256 -4.546534 18.776574 57.157376 227 232 232 0.0
4257 17.306691 12.931773 43.812104 64 67 65 0.0
4258 90.960553 76.736651 -62.871402 199 199 196 0.0
4259 119.748512 112.326530 79.368673 33 36 28 0.0
4260 29.819802 -44.485379 19.276923 164 161 163 0.0
4261 88.583232 43.019967 11.200981 31 30 33 0.0
4262 29.954431 15.136100 -18.141167 100 105 103 0.0
4263 10.771323 26.823963 58.668132 114 118 113 0.0
4264 -33.566220 97.661420 58.746173 87 85 85 0.0
4265 -44.689302 111.150433 114.346489 75 76 77 0.0
4266 -8.329438 11.556049 48.418080 230 235 225 0.0
4267 55.192834 8.557245 -30.258423 173 175 172 0.0
4268 51.162878 11.071962 119.777791 105 105 105 0.0
4269 -7.954109 -64.892245 102.550290 47 43 46 0.0
4270 17.753480 77.963399 -64.073991 73 78 68 0.0
4271 -18.691513 -21.279493 54.510819 20 16 20 0.0
4272 -49.568043 0.974374 84.561081 125 128 128 0.0
4273 4.226474 30.223527 60.220530 156 157 156 0.0
4274 39.556127 38.477114 47.944458 91 94 87 0.0
4275 33.128487 -53.372148 50.619952 108 109 108 0.0
4276 74.122867 70.664931 -11.522946 188 189 183 0.0
4277 22.445803 63.081395 79.872039 192 197 188 0.0
4278 -49.075289 -18.725478 -20.805043 230 225 230 0.0
4279 24.129957 18.824228 117.029431 211 213 209 0.0
4280 -39.883468 93.618710 88.904862 134 133 129 0.0
4281 -49.129491 107.423576 -9.562666 41 42 41 0.0
4282 3.927464 -39.368497 41.341648 36 40 39 0.0
4283 95.598207 8.628696 -56.800187 51 46 48 0.0
4284 118.578047 -4.466139 -25.470389 27 23 31 0.0
4285 4.915272 98.141596 20.509569 102 101 106 0.0
4286 -2.826528 69.296573 -13.983161 107 104 105 0.0
4287 31.033340 31.136098 100.740842 215 217 218 0.0
4288 5.026827 39.224799 55.892269 212 209 213 0.0
4289 -2.745001 110.222269 -54.089664 82 86 85 0.0
4290 -15.656866 106.418230 19.980151 108 107 107 0.0
4291 101.901996 79.439129 83.914140 197 195 198 0.0
4292 29.008283 57.091763 -6.422755 246 246 251 0.0
4293 54.040629 105.209876 -59.770137 199 203 196 0.0
4294 83.346109 85.330537 -44.875440 71 70 70 0.0
4295 -62.931534 -3.899659 -27.192619 170 172 173 0.0
4296 -45.388437 -58.966799 -64.438991 58 53 58 0.0
4297 -36.567236 -39.745611 27.815054 17 21 19 0.0
4298 54.075326 58.819789 -24.465044 154 151 159 0.0
4299 100.580706 45.153811 111.768630 24 23 21 0.0
4300 -12.607744 35.417723 -62.501245 92 97 87 0.0
4301 7.376017 54.066874 -26.150839 63 62 68 0.0
4302 -16.183885 69.342476 62.346404 134 138 129 0.0
4303 9.629915 -52.895364 22.832983 206 208 204 0.0
4304 55.249543 -61.135674 -51.016729 185 183 184 0.0
4305 -14.529372 49.892555 115.934221 226 222 227 0.0
4306 5.352332 67.722132 -22.546844 74 76 69 0.0
4307 30.686789 80.607979 109.848222 241 241 242 0.0
4308 -50.960721 97.390331 -42.228713 249 253 254 0.0
4309 -58.815452 -15.403159 31.840726 135 139 137 0.0
4310 85.781907 47.171557 -50.998505 131 130 129 0.0
4311 84.970153 86.278912 7.091514 90 88 88 0.0
4312 -17.831961 -21.866241 64.487753 85 80 82 0.0
4313 102.667757 46.068552 61.424592 233 229 230 0.0
4314 -35.539840 -21.798909 -31.930178 164 167 162 0.0
4315 38.446637 -11.555327 0.775243 47 50 43 0.0
4316 95.939176 61.780959 60.428543 238 243 241 0.0
4317 -31.821135 -58.421500 1.447341 148 149 149 0.0
4318 9.954196 -64.651081 -37.243150 177 177 173 0.0
4319 90.621877 3.270050 -24.409864 202 203 201 0.0
4320 -17.913931 90.815256 92.585238 200 198 205 0.0
4321 -42.332934 17.765260 -55.390149 133 133 128 0.0
4322 -43.546862 -35.033384 -36.647251 63 64 62 0.0
4323 -9.497359 119.846552 -33.741352 151 146 148 0.0
4324 85.364952 -26.423910 116.293173 173 171 174 0.0
4325 -51.846167 36.410777 87.236026 24 25 27 0.0
4326 107.528843 -12.649839 19.649997 221 220 216 0.0
4327 66.231029 -17.140969 97.742586 109 104 112 0.0
4328 -64.454450 72.505748 -59.344427 9 9 14 0.0
4329 -45.877755 -30.343692 -55.214401 184 186 186 0.0
4330 -58.720712 -5.391021 51.009692 232 231 237 0.0
4331 58.418006 116.726465 60.148194 155 159 151 0.0
4332 3.510345 -45.957376 45.834959 171 170 176 0.0
4333 70.393211 15.445306 -20.169063 131 132 128 0.0
4334 -57.103922 -6.249485 25.817044 30 27 27 0.0
4335 77.053948 -51.551192 22.773480 165 166 165 0.0
4336 83.404910 64.925848 -42.750504 45 42 44 0.0
4337 26.375302 -30.127311 38.359062 131 130 136 0.0
4338 50.532924 64.498582 104.957172 21 20 23 0.0
4339 81.142237 -27.153475 46.333502 239 239 234 0.0
4340 86.358927 101.371438 15.908605 165 169 164 0.0
4341 -35.821047 -66.914566 1.381371 47 42 50 0.0
4342 -13.628549 13.444197 26.548483 131 126 133 0.0
4343 77.783773 78.283183 118.576417 66 66 66 0.0
4344 104.874626 82.653545 -67.330950 242 238 238 0.0
4345 -60.353013 -65.907842 -55.538431 81 78 78 0.0
4346 14.188873 19.423453 102.900401 109 104 108 0.0
4347 85.045573 108.428252 -40.454949 96 92 92 0.0
4348 0.042794 -43.008452 107.125700 230 225 228 0.0
4349 36.483001 -32.841574 48.765400 83 82 84 0.0
4350 8.382214 -55.963258 57.582243 229 229 226 0.0
4351 -12.784233 115.996951 28.018069 234 234 236 0.0
4352 10.311321 -17.113586 -62.097879 13 10 16 0.0
4353 56.250553 -10.791378 -29.004944 158 153 155 0.0
4354 57.787289 92.202713 -22.262601 36 35 34 0.0
4355 65.253918 90.660222 -44.290432 176 181 176 0.0
4356 -19.355237 -35.677168 -29.053095 123 118 126 0.0
4357 113.009160 64.225342 109.193738 18 18 20 0.0
4358 39.806411 20.081841 58.502941 75 74 75 0.0
4359 88.195321 82.992832 76.357664 210 205 212 0.0
4360 96.275697 -66.776064 66.382493 217 215 216 0.0
4361 59.077408 10.874485 61.546360 22 18 27 0.0
4362 42.260383 -2.648446 66.534575 88 91 89 0.0
4363 45.180013 58.941432 -49.483354 167 169 172 0.0
4364 26.849361 -46.029929 20.862573 73 76 73 0.0
4365 -34.477725 119.427452 -44.087516 249 247 251 0.0
4366 -24.271490 19.593459 39.092890 134 132 132 0.0
4367 72.118961 68.028038 -48.247565 68 67 68 0.0
4368 50.229094 13.832053 16.067250 172 175 171 0.0
4369 4.037382 -23.385530 -54.506658 69 72 69 0.0
4370 108.660070 49.435946 60.429892 130 134 133 0.0
4371 40.226977 99.677790 60.429538 127 122 124 0.0
4372 83.557532 98.680409 41.259323 248 245 246 0.0
4373 -30.280089 96.157966 99.159051 5 2 10 0.0
4374 1.550380 66.087101 59.767664 125 127 128 0.0
4375 -24.574499 18.223747 93.183097 170 167 168 0.0
4376 12.094291 -36.623617 -23.782241 205 201 206 0.0
4377 -9.926165 34.667251 50.018895 187 192 184 0.0
4378 -7.608237 103.808750 -57.163906 205 205 203 0.0
4379 42.439771 119.642317 99.942621 188 187 193 0.0
4380 -58.922595 83.227520 115.219969 62 65 67 0.0
4381 116.666347 61.357494 -11.472345 9 12 8 0.0
4382 -43.917497 -52.622406 47.815267 148 146 149 0.0
4383 16.337206 46.568457 -35.099964 91 88 93 0.0
4384 -28.677704 -67.693938 -63.752650 135 132 136 0.0
4385 20.564124 53.302621 22.545572 80 85 77 0.0
4386 38.780043 53.749160 18.613415 76 79 75 0.0
4387 -3.808741 -15.782185 27.598324 185 187 187 0.0
4388 53.543515 -59.369902 104.237069 98 97 99 0.0
4389 21.808865 75.047606 -61.660470 166 170 161 0.0
4390 -39.571213 81.229316 40.905486 15 12 10 0.0
4391 -8.893608 112.370161 -7.662861 165 167 164 0.0
4392 -41.067352 -20.715713 109.016359 246 251 246 0.0
4393 80.587344 87.793563 39.920471 197 196 201 0.0
4394 26.700916 -21.855270 -10.329981 242 239 243 0.0
4395 -9.289333 113.026301 78.893438 90 86 89 0.0
4396 112.520647 -69.621215 87.930169 233 234 232 0.0
4397 53.333782 -0.480154 -52.565237 233 230 230 0.0
4398 54.029896 76.813306 47.089068 106 106 103 0.0
4399 -41.703412 -10.385933 -6.951661 169 174 168 0.0
4400 -65.137524 51.421271 76.259211 45 46 50 0.0
4401 92.038435 -40.952080 114.114559 58 54 59 0.0
4402 50.870431 -29.281849 82.289201 127 130 126 0.0
4403 38.569316 -21.718767 -4.730255 209 206 205 0.0
4404 -64.798448 -51.358534 -38.609330 151 148 153 0.0
4405 -14.997415 116.526035 26.529561 22 19 20 0.0
4406 2.818410 60.393547 85.642849 22 25 21 0.0
4407 104.743056 47.183713 40.132682 203 207 207 0.0
4408 102.704918 60.476550 -63.114553 180 180 177 0.0
4409 40.700660 -49.170631 78.367082 217 213 215 0.0
4410 114.557012 38.956152 36.157069 47 52 48 0.0
4411 -19.713195 28.844919 36.560885 133 130 137 0.0
4412 -68.677117 -20.189878 92.743313 172 177 176 0.0
4413 105.583342 49.646259 17.773615 11 10 8 0.0
4414 32.846789 -6.015792 59.647834 235 232 239 0.0
4415 49.048176 60.273134 39.936600 216 221 218 0.0
4416 -42.647892 -8.608539 96.622428 133 129 135 0.0
4417 38.733614 97.888473 47.234359 151 154 152 0.0
4418 -61.175509 108.283529 54.419208 201 203 197 0.0
4419 34.755891 16.261737 -11.684653 112 113 111 0.0
4420 99.889548 80.286606 40.914988 219 218 216 0.0
4421 89.559764 0.656300 107.443563 13 18 10 0.0
4422 108.701607 89.354163 90.466585 19 19 23 0.0
4423 -38.362704 8.694312 -31.175572 70 74 65 0.0
4424 -65.173414 87.544169 6.702829 47 42 50 0.0
4425 38.224387 1.154811 28.511714 160 157 157 0.0
4426 43.274211 22.631622 14.714816 56 55 60 0.0
4427 11.217072 -8.327008 20.390471 208 205 212 0.0
4428 -66.892843 89.189491 -57.751261 110 108 109 0.0
4429 -24.446709 106.574604 -32.885545 51 52 50 0.0
4430 19.442535 -26.693404 94.748537 48 50 43 0.0
4431 -18.671608 -36.618932 -67.013757 191 195 187 0.0
4432 86.596940 19.591966 -51.247441 135 137 133 0.0
4433 77.594539 70.588997 -8.943965 159 154 155 0.0
4434 95.601564 82.854777 16.584347 242 246 238 0.0
4435 -13.215007 -33.944213 -2.713234 102 107 103 0.0
4436 -49.958742 94.927330 -43.273255 106 107 107 0.0
4437 10.420004 3.248043 100.009049 120 125 120 0.0
4438 59.577597 -35.221063 -38.683970 38 43 38 0.0
4439 2.303399 28.939987 57.689604 87 91 82 0.0
4440 37.323772 15.528560 98.221797 63 58 58 0.0
4441 4.484812 -17.978523 62.224309 39 39 43 0.0
4442 -62.572683 79.015957 98.174117 48 44 48 0.0
4443 31.729214 -36.514530 -58.835371 85 86 81 0.0
4444 -17.604188 70.836288 -59.268763 110 109 110 0.0
4445 -29.447168 43.799995 43.118514 144 145 147 0.0
4446 -42.064193 97.688625 13.485999 153 150 156 0.0
4447 43.558023 -5.996183 93.741646 116 117 115 0.0
4448 23.367468 79.405073 -32.181737 22 18 26 0.0
4449 32.705788 61.541650 -29.469924 165 162 168 0.0
4450 12.759517 -42.359618 22.069517 59 63 64 0.0
4451 -53.490632 58.590661 -68.766455 59 57 63 0.0
4452 -58.881169 -55.140263 35.191238 152 148 149 0.0
4453 -44.620100 -27.567586 0.756272 235 232 238 0.0
4454 -52.123394 -29.904899 71.320883 166 162 167 0.0
4455 69.880349 77.734148 91.307341 7 10 12 0.0
4456 -63.947543 9.919657 79.508974 239 236 242 0.0
4457 17.313824 32.617654 38.606173 165 168 164 0.0
4458 -32.270790 -40.300119 82.900750 146 149 142 0.0
4459 -32.918426 98.524540 28.437684 148 150 152 0.0
4460 90.158225 59.650121 10.310709 170 167 171 0.0
4461 50.275584 78.803997 -6.632430 151 150 153 0.0
4462 -1.011714 22.171747 114.406731 191 187 190 0.0
4463 1.585211 21.111228 27.862255 238 233 236 0.0
4464 6.172551 115.610825 39.909658 42 40 45 0.0
4465 4.036878 23.871326 -14.189302 34 30 37 0.0
4466 5.851290 118.457099 116.584325 192 190 192 0.0
4467 -55.801883 66.513051 -4.717920 109 106 109 0.0
4468 75.820644 17.004125 -42.987306 29 28 24 0.0
4469 5.270853 9.628065 107.283707 153 149 149 0.0
4470 96.485854 54.949281 58.173248 121 119 118 0.0
4471 115.731296 3.443566 -60.853347 68 69 72 0.0
4472 114.856158 18.648634 93.644173 155 158 152 0.0
4473 45.200466 97.626230 -31.807590 135 139 132 0.0
4474 -25.501506 112.833336 42.093588 193 197 192 0.0
4475 95.893280 -64.670398 49.496528 165 169 167 0.0
4476 8.993197 37.861477 -16.971367 172 172 175 0.0
4477 -15.728874 102.178791 -1.872060 210 206 207 0.0
4478 -4.034682 20.929297 -28.184285 113 111 112 0.0
4479 -66.028282 62.778794 -3.654308 22 26 18 0.0
4480 80.850592 43.695408 61.123593 187 182 186 0.0
4481 -32.763713 59.192451 26.804289 88 84 90 0.0
4482 -62.776483 79.191062 -12.863454 21 25 20 0.0
4483 -28.232632 13.844010 -29.527410 190 193 189 0.0
4484 39.030611 -13.755880 81.986004 191 192 187 0.0
4485 70.084135 30.420535 116.518298 202 205 200 0.0
4486 114.931555 118.953273 66.421387 228 225 231 0.0
4487 64.691130 115.407918 43.439656 130 129 135 0.0
4488 -47.062756 -65.940551 -56.264631 165 161 161 0.0
4489 9.269056 12.130306 113.001842 45 44 44 0.0
4490 -39.158514 27.430603 47.363443 43 44 48 0.0
4491 57.566490 -27.066655 -63.712468 109 113 104 0.0
4492 83.416455 76.813644 -64.875497 30 26 26 0.0
4493 100.064471 -60.579260 43.787413 229 234 226 0.0
4494 116.528494 79.854157 -65.925424 67 70 64 0.0
4495 -23.534015 104.327744 -20.905108 72 68 69 0.0
4496 63.333659 93.743617 96.913143 188 191 183 0.0
4497 -32.937297 111.618237 -13.311532 113 113 109 0.0
4498 -5.740473 61.351424 16.517420 136 134 139 0.0
4499 -1.367950 57.174503 27.330568 243 248 248 0.0
4500 54.115676 -2.028335 104.316649 186 186 187 0.0
4501 -17.779185 -61.150775 100.633206 235 240 237 0.0
4502 37.138122 49.554175 97.997115 209 211 208 0.0
4503 84.227817 -63.386583 -28.532346 84 89 88 0.0
4504 -31.859374 -39.841530 -15.067859 168 165 172 0.0
4505 42.534344 82.464040 86.363041 26 26 29 0.0
4506 77.582557 -30.672848 8.497535 140 139 141 0.0
4507 40.020861 77.251295 84.384303 165 167 170 0.0
4508 61.457721 101.381011 77.823495 239 244 236 0.0
4509 53.544974 12.801330 30.567668 52 47 54 0.0
4510 117.521629 83.551484 53.797836 35 36 32 0.0
4511 -48.306518 29.969181 88.262307 129 132 130 0.0
4512 12.505553 -65.378146 -5.153591 70 65 73 0.0
4513 -21.544974 67.425219 97.610787 58 55 62 0.0
4514 -31.475569 92.191648 60.111494 75 76 71 0.0
4515 7.876473 18.988883 109.317848 215 217 216 0.0
4516 -61.993190 48.726314 -0.306565 169 165 171 0.0
4517 -48.677155 -0.927938 94.538743 41 37 38 0.0
4518 -43.876920 29.418200 -46.979900 108 104 103 0.0
4519 100.625802 103.438910 53.777349 105 108 109 0.0
4520 20.078133 83.683163 26.328597 202 198 203 0.0
4521 118.761521 79.574760 109.478210 157 161 153 0.0
4522 -25.512133 67.574910 25.752832 239 244 242 0.0
4523 -18.619414 9.446555 95.926884 160 165 165 0.0
4524 -37.839491 19.640188 -66.158369 50 53 54 0.0
4525 18.482833 35.624958 80.974009 37 37 41 0.0
4526 -21.269735 99.806918 -49.954245 191 190 191 0.0
4527 -30.384936 -60.234201 1.542107 29 34 27 0.0
4528 -35.731105 113.487080 91.501317 196 194 193 0.0
4529 -28.765877 13.941242 -14.744358 237 242 241 0.0
4530 16.059581 -56.964648 -5.830511 81 84 84 0.0
4531 -23.281930 21.548474 101.184178 46 48 42 0.0
4532 99.276993 116.362386 37.698742 84 87 87 0.0
4533 119.631252 -13.622222 77.806129 165 163 168 0.0
4534 92.306325 -65.354907 88.922123 149 150 144 0.0
4535 58.258596 -30.250424 22.857634 147 152 150 0.0
4536 52.387630 82.486626 27.211354 125 124 122 0.0
4537 88.277981 27.260905 -14.048149 90 94 88 0.0
4538 -17.082562 41.291094 -4.267055 10 12 8 0.0
4539 114.222703 53.041293 117.534368 208 210 205 0.0
4540 -57.922698 -8.495932 -65.050860 37 42 33 0.0
4541 10.014326 -7.519089 -7.999702 73 72 70 0.0
4542 -6.077914 59.219337 -67.505234 244 246 239 0.0
4543 -25.215090 26.675052 75.097038 123 128 118 0.0
4544 29.401357 106.336436 68.648353 163 161 163 0.0
4545 -55.282427 76.508126 48.299933 160 158 163 0.0
4546 66.991314 40.780249 36.771997 230 230 232 0.0
4547 7.893614 -48.720450 44.103622 105 103 108 0.0
4548 83.343419 -7.153225 76.264749 37 36 34 0.0
4549 64.511992 68.314779 71.897844 188 184 183 0.0
4550 -19.552126 119.566589 99.407918 62 63 64 0.0
4551 72.043594 -18.653088 71.408614 60 63 59 0.0
4552 90.687300 -26.378524 86.908703 182 179 185 0.0
4553 100.686987 14.700288 23.251778 15 16 10 0.0
4554 97.102536 -14.738761 115.488646 125 124 129 0.0
4555 -58.219342 -51.571607 22.772062 155 151 159 0.0
4556 -43.054842 63.787970 74.733736 231 236 230 0.0
4557 102.489851 -2.121848 -67.477240 244 242 244 0.0
4558 57.282752 49.342608 94.123021 118 114 117 0.0
4559 -38.567731 71.153825 24.670950 67 63 64 0.0
4560 57.653490 64.485254 -25.682778 105 104 104 0.0
4561 73.101726 39.245964 107.074930 64 62 68 0.0
4562 -55.029903 -63.942257 -67.092798 14 17 18 0.0
4563 10.859195 26.239449 71.534939 97 100 100 0.0
4564 -49.163148 46.000059 52.838054 226 226 224 0.0
4565 -25.461886 -23.343076 -50.973204 92 89 92 0.0
4566 -49.958541 -48.685053 -49.215892 192 191 196 0.0
4567 48.322831 -35.105301 -63.330133 136 134 137 0.0
4568 44.830441 52.802824 -9.491782 228 230 227 0.0
4569 -50.074855 -36.710920 -65.464523 35 33 33 0.0
4570 10.036565 114.099956 -42.946456 20 18 20 0.0
4571 -36.765668 66.151792 -60.965957 15 14 13 0.0
4572 85.004281 5.097625 -56.560964 103 107 106 0.0
4573 114.316387 -62.133198 86.641885 171 176 169 0.0
4574 69.740977 69.454189 -59.547154 155 157 156 0.0
4575 -34.259287 40.757864 46.981242 24 27 27 0.0
4576 -67.364401 92.218290 98.127555 8 3 3 0.0
4577 98.163307 -48.615440 105.151355 127 127 129 0.0
4578 -6.855185 -62.601932 -59.910299 104 102 102 0.0
4579 13.904645 75.754817 15.561323 100 104 104 0.0
4580 107.415047 -36.851574 -62.825072 189 193 187 0.0
4581 -33.645057 -39.227999 98.865814 108 104 112 0.0
4582 -50.500435 -3.356723 5.320313 239 244 239 0.0
4583 -21.697283 114.401529 -25.990034 8 5 3 0.0
4584 29.427351 -21.686941 68.350599 197 196 193 0.0
4585 28.655701 90.075580 102.531332 198 200 200 0.0
4586 12.972970 -31.222716 74.071828 37 37 40 0.0
4587 64.044415 114.512885 94.983418 245 244 243 0.0
4588 76.494826 92.108955 -48.342867 141 137 140 0.0
4589 33.689315 60.498198 118.283770 139 138 140 0.0
4590 47.092065 39.414177 94.875926 245 245 240 0.0
4591 -17.929408 -44.008751 -7.134192 155 151 152 0.0
4592 54.926083 76.854077 -31.994287 218 216 216 0.0
4593 90.342295 2.691107 72.072391 162 157 158 0.0
4594 -11.424081 -38.902303 113.003476 167 163 170 0.0
4595 -1.759614 -67.019802 111.881547 50 55 49 0.0
4596 -45.509736 55.295986 97.323821 149 153 147 0.0
4597 -37.424784 114.411113 77.313325 56 52 51 0.0
4598 60.259474 48.866982 56.620232 168 168 168 0.0
4599 87.389232 39.339609 85.691778 176 171 172 0.0
4600 -27.639157 10.960107 -62.854874 73 77 70 0.0
4601 13.851832 -63.591763 42.401111 88 92 92 0.0
4602 31.626422 20.519549 68.972490 136 132 136 0.0
4603 4.914679 -18.953094 30.784115 149 150 146 0.0
4604 -20.582814 13.171285 65.017070 162 161 164 0.0
4605 51.424787 23.141531 42.418235 6 6 10 0.0
4606 -42.454784 4.807584 24.478224 233 228 234 0.0
4607 -9.902671 12.687469 71.921201 124 127 120 0.0
4608 14.725504 74.496929 23.389222 71 67 67 0.0
4609 104.099027 7.963724 72.477564 142 142 139 0.0
4610 67.743405 -50.641101 48.975669 143 140 138 0.0
4611 -58.337085 63.424871 -35.376227 239 239 239 0.0
4612 -57.985387 98.204535 109.146237 133 131 132 0.0
4613 97.256517 83.646312 112.662307 74 79 75 0.0
4614 58.716707 72.947233 -39.686323 101 99 96 0.0
4615 -55.976471 91.541661 1.842832 123 121 128 0.0
4616 -20.621268 -0.136160 101.350062 36 38 31 0.0
4617 34.176374 63.938702 50.376530 135 138 132 0.0
4618 55.038765 -34.270289 2.602334 104 100 99 0.0
4619 67.019977 53.596917 -3.320581 124 123 128 0.0
4620 -57.208242 -9.652861 25.233727 239 244 234 0.0
4621 79.623356 -31.054914 56.098876 180 181 179 0.0
4622 3.137197 65.349457 -53.200138 31 28 33 0.0
4623 -54.830677 -44.400190 -0.267926 12 11 17 0.0
4624 92.488836 26.371148 10.957516 135 131 135 0.0
4625 56.417223 -33.092958 -65.670402 162 165 162 0.0
4626 4.629554 82.951061 -65.102504 235 230 234 0.0
4627 74.247741 -14.275259 -33.973584 216 215 220 0.0
4628 -41.698082 -34.571487 85.943852 115 119 112 0.0
4629 24.665036 -42.808797 62.477223 42 44 46 0.0
4630 -43.293200 31.850766 26.140107 152 149 156 0.0
4631 45.286297 -22.630928 11.198411 157 157 152 0.0
4632 -27.673925 -39.053918 -23.130935 88 85 89 0.0
4633 4.677929 38.407672 -61.172180 144 140 144 0.0
4634 4.021769 76.277152 104.914033 128 132 132 0.0
4635 81.661551 89.937868 43.909848 102 107 101 0.0
4636 -66.152331 55.222871 68.206190 158 156 160 0.0
4637 -45.341866 -38.843123 -33.276701 231 229 226 0.0
4638 -39.215215 73.789850 92.464815 23 24 23 0.0
4639 51.742641 -20.822105 41.355521 166 171 161 0.0
4640 -21.950216 -15.274392 39.488889 111 115 116 0.0
4641 65.276689 66.701246 60.178983 234 229 233 0.0
4642 42.862083 89.710749 45.923730 69 74 64 0.0
4643 116.881128 -1.065150 31.137259 33 31 34 0.0
4644 35.263351 -31.562376 76.808732 69 72 67 0.0
4645 -37.089014 -55.424848 -1.848975 72 70 68 0.0
4646 113.515281 99.837189 71.802795 135 138 132 0.0
4647 8.412970 -40.164433 9.157118 71 72 74 0.0
4648 3.448218 34.600855 98.306457 87 83 86 0.0
4649 -13.013046 77.384734 70.568834 24 26 28 0.0
4650 -20.246770 92.982384 -46.797355 28 30 32 0.0
4651 -63.680118 -30.269350 94.183505 10 13 11 0.0
4652 51.309830 110.040055 33.219762 225 221 224 0.0
4653 103.018176 14.609920 108.387313 216 213 221 0.0
4654 48.883646 60.105690 -2.825342 83 88 87 0.0
4655 100.601088 3.810686 59.153871 78 83 77 0.0
4656 14.593901 -14.803715 84.307362 195 196 191 0.0
4657 21.175311 15.480536 20.127475 133 138 128 0.0
4658 29.161624 108.148725 56.935364 99 103 96 0.0
4659 115.044719 72.709106 -64.761531 172 169 176 0.0
4660 9.881254 78.550543 -29.523184 228 232 231 0.0
4661 94.144574 0.855357 -46.063504 39 35 44 0.0
4662 -67.814424 -45.116027 -53.768279 96 94 97 0.0
4663 72.148222 82.398901 -13.918414 218 220 217 0.0
4664 -61.225747 -28.394369 118.327181 177 174 176 0.0
4665 115.506632 -55.299946 7.107754 241 236 244 0.0
4666 28.590924 -16.793495 55.927756 170 167 165 0.0
4667 -44.335737 63.201102 46.453661 144 141 149 0.0
4668 -49.930987 -30.945810 106.316515 14 18 13 0.0
4669 -21.416168 -10.749933 -64.688610 127 125 127 0.0
4670 16.395745 -56.367785 60.239646 225 224 227 0.0
4671 9.863777 78.568666 -51.984581 189 186 187 0.0
4672 77.044798 -40.335022 -36.682776 139 139 139 0.0
4673 60.605473 119.896894 91.202555 109 113 113 0.0
4674 -19.108675 30.642653 108.527897 208 204 208 0.0
4675 -41.758427 77.547875 12.375299 17 22 15 0.0
4676 39.655295 1.230844 104.238666 204 209 200 0.0
4677 -64.155352 92.542898 25.910476 41 46 46 0.0
4678 -37.300417 -16.869245 61.313313 240 244 239 0.0
4679 106.320318 -55.624255 -46.541525 156 153 156 0.0
4680 43.966977 -40.051179 72.013390 116 115 121 0.0
4681 15.254306 -53.464661 63.906796 129 125 130 0.0
4682 -14.720221 113.014288 18.779689 249 246 244 0.0
4683 81.998095 13.856540 21.927759 208 203 213 0.0
4684 13.336381 97.658965 -27.280286 215 220 220 0.0
4685 -34.334239 47.460221 58.911555 111 113 113 0.0
4686 -17.900630 89.274268 77.617958 127 124 132 0.0
4687 61.361829 63.419574 48.045382 214 214 211 0.0
4688 80.307621 35.842786 37.768915 55 58 60 0.0
4689 -13.725819 110.822110 -33.032681 171 169 175 0.0
4690 -3.831458 -20.890068 31.959386 18 22 20 0.0
4691 -12.207098 102.440697 54.266534 233 230 238 0.0
4692 87.180058 56.554364 -1.225521 9 14 11 0.0
4693 20.577646 -6.022692 -27.145793 188 183 183 0.0
4694 73.189421 19.665292 78.627980 157 159 153 0.0
4695 -22.797522 64.601711 85.857451 29 29 26 0.0
4696 45.912510 -53.254775 -39.792905 137 139 141 0.0
4697 88.130904 33.280294 44.944473 168 163 169 0.0
4698 104.241383 -46.289536 -67.666363 24 27 26 0.0
4699 -33.606918 73.654654 -42.385275 206 203 203 0.0
4700 0.228232 24.094441 77.164862 128 131 132 0.0
4701 22.021898 -61.352775 118.080651 136 131 138 0.0
4702 23.346633 -47.692454 58.245950 117 119 116 0.0
4703 -49.937020 -51.609488 20.899304 191 190 194 0.0
4704 -55.930343 114.047806 101.491633 235 240 237 0.0
4705 89.229765 0.971627 -60.115761 196 198 191 0.0
4706 91.177604 72.575076 90.706411 194 198 191 0.0
4707 3.467923 76.385131 61.352443 63 68 68 0.0
4708 84.490993 105.644489 85.495358 95 90 92 0.0
4709 -19.335610 117.694381 98.937576 85 90 81 0.0
4710 44.303227 90.466797 1.527495 66 71 69 0.0
4711 102.507422 -17.829446 -28.105065 6 7 3 0.0
4712 7.405801 57.899845 -27.571232 207 206 207 0.0
4713 -25.544069 -9.199395 94.958716 198 200 195 0.0
4714 26.042136 -0.897227 60.702420 89 92 90 0.0
4715 46.768751 43.854215 -48.480752 246 245 247 0.0
4716 72.189880 55.805518 13.313086 101 104 96 0.0
4717 -55.331644 -15.924475 -30.164913 249 245 253 0.0
4718 82.968425 0.931366 89.622760 90 92 95 0.0
4719 -63.198472 37.408115 45.154406 20 18 20 0.0
4720 -69.200368 -29.679568 89.545313 51 46 53 0.0
4721 113.727332 89.076432 -62.325607 181 180 186 0.0
4722 100.459899 107.734524 15.979171 69 64 64 0.0
4723 59.197883 109.583547 69.315062 32 33 32 0.0
4724 -63.273661 86.832473 -61.870701 55 50 57 0.0
4725 -69.503173 -60.843289 54.202682 51 49 54 0.0
4726 107.964183 100.598290 -58.921856 124 123 125 0.0
4727 -41.786709 47.731705 -9.331981 53 57 55 0.0
4728 34.460619 62.895458 -18.826350 95 92 90 0.0
4729 95.753841 30.942635 86.382652 181 177 179 0.0
4730 80.461391 119.388700 6.623138 105 106 109 0.0
4731 -33.020337 60.308235 8.521381 37 33 38 0.0
4732 39.992752 45.451376 19.392589 136 133 132 0.0
4733 98.885545 2.059892 93.030116 218 221 219 0.0
4734 0.967500 77.998083 -62.983225 142 146 140 0.0
4735 80.557037 107.901208 -14.246141 234 234 235 0.0
4736 83.383710 -54.555043 6.655897 50 55 49 0.0
4737 -37.280696 -62.196249 107.721370 247 250 245 0.0
4738 -33.537282 78.971632 18.686904 25 24 26 0.0
4739 -25.805377 -41.480567 112.701030 127 124 123 0.0
4740 -22.365887 48.991005 -63.979347 64 61 60 0.0
4741 32.524672 48.286394 -52.135396 56 54 51 0.0
4742 56.616910 106.583402 -5.214282 88 86 87 0.0
4743 98.481048 103.474056 -4.886190 114 116 112 0.0
4744 -42.913730 101.685567 119.768405 91 91 89 0.0
4745 93.261936 51.460975 105.537574 129 134 126 0.0
4746 -52.929183 85.204458 54.920056 156 157 158 0.0
4747 111.179508 79.529250 44.417347 236 240 241 0.0
4748 -27.831916 -59.000429 65.791663 57 55 58 0.0
4749 88.795863 114.626254 70.142637 146 142 148 0.0
4750 -1.712178 -62.450759 47.192172 144 143 143 0.0
4751 8.246480 55.177384 45.384538 187 185 189 0.0
4752 109.852527 38.698885 -26.111163 89 90 84 0.0
4753 117.467626 29.515579 113.208636 162 162 163 0.0
4754 73.807991 72.425109 64.292872 39 34 43 0.0
4755 65.328336 72.696062 18.561475 18 16 14 0.0
4756 53.479815 118.522011 109.233861 64 64 60 0.0
4757 32.814558 22.751343 -52.719678 109 110 109 0.0
4758 -52.285904 -45.996173 100.274561 23 18 22 0.0
4759 21.293538 76.481134 -66.078305 13 8 15 0.0
4760 79.613558 58.832511 -10.668312 143 144 140 0.0
4761 -59.365210 110.368610 41.337132 192 188 188 0.0
4762 -55.683164 17.939490 79.533422 5 1 7 0.0
4763 -37.375372 99.945151 27.565367 82 83 83 0.0
4764 48.121978 -16.664176 -28.602784 137 139 134 0.0
4765 6.112555 108.528450 107.248123 250 251 251 0.0
4766 -42.829988 73.085895 -21.458547 63 59 65 0.0
4767 -6.097427 93.341078 117.976247 189 184 191 0.0
4768 -63.226608 94.085960 -13.694870 84 85 79 0.0
4769 46.199654 26.983932 -30.883356 238 239 237 0.0
4770 84.152070 74.453577 81.757890 66 67 65 0.0
4771 7.500708 61.620560 -49.275864 239 243 239 0.0
4772 -3.407445 16.917694 100.457604 95 96 99 0.0
4773 19.579778 72.807201 -17.076707 38 36 33 0.0
4774 91.279718 47.525332 1.285835 118 118 116 0.0
4775 60.085637 -21.579491 111.902014 213 216 215 0.0
4776 -9.809622 -41.263436 -23.904239 35 37 31 0.0
4777 -5.517167 56.730324 -62.185668 165 168 168 0.0
4778 32.425611 47.807530 -69.762928 72 73 68 0.0
4779 -12.287066 102.912985 43.370251 42 39 44 0.0
4780 88.070162 5.054036 -33.031595 224 220 219 0.0
4781 72.362899 113.739233 41.479049 207 210 208 0.0
4782 97.068973 -46.360814 102.924117 244 246 239 0.0
4783 30.962189 49.254590 78.597314 166 171 162 0.0
4784 -26.303845 -40.834594 -9.875181 131 131 128 0.0
4785 2.460483 -30.131724 55.505722 71 71 72 0.0
4786 -34.709529 56.861988 89.177577 121 119 120 0.0
4787 -1.479613 38.338650 -10.126139 151 153 150 0.0
4788 100.816272 65.901468 119.354583 128 127 126 0.0
4789 -68.996622 39.742911 -56.757900 158 158 159 0.0
4790 77.797904 51.385341 -42.192202 156 151 161 0.0
4791 77.869549 72.838761 16.053485 37 42 32 0.0
4792 46.717029 0.922203 -49.199927 17 22 19 0.0
4793 23.258571 95.131864 -27.627535 233 229 228 0.0
4794 -66.843647 50.455244 11.041186 44 39 49 0.0
4795 -5.604005 -50.984257 -2.821957 213 212 208 0.0
4796 -11.615940 -36.975741 82.818128 147 142 145 0.0
4797 6.205907 29.129558 22.736618 126 121 125 0.0
4798 57.586677 -29.109516 34.000287 105 108 107 0.0
4799 9.728606 44.451071 67.375051 216 220 217 0.0
4800 13.745793 105.772520 74.623197 122 120 118 0.0
4801 7.373302 101.380750 -10.066675 132 136 133 0.0
4802 -11.841161 1.283152 57.489837 128 130 125 0.0
4803 59.903444 78.229633 47.497452 184 186 188 0.0
4804 -28.856311 83.689962 66.773811 82 80 85 0.0
4805 -29.826319 14.579178 7.796708 214 213 209 0.0
4806 13.796622 62.737075 21.701413 37 40 41 0.0
4807 -20.412132 -62.105483 78.406824 106 110 111 0.0
4808 -64.528106 -44.378964 76.549072 123 119 124 0.0
4809 11.101940 60.894655 44.399984 48 49 50 0.0
4810 -1.768186 21.973831 -59.730959 190 190 194 0.0
4811 73.128089 -28.168572 88.529310 194 193 195 0.0
4812 -51.781977 -8.369398 73.189253 34 30 36 0.0
4813 -45.491251 92.435892 20.387408 156 160 160 0.0
4814 99.182661 95.549907 -20.208693 201 196 200 0.0
4815 16.864625 85.379903 31.712424 130 134 128 0.0
4816 -61.394946 65.520614 22.057000 51 51 52 0.0
4817 -50.239117 23.762692 12.757560 88 91 85 0.0
4818 -5.550369 83.127269 77.380784 45 46 43 0.0
4819 29.245112 74.691829 -62.931584 96 96 98 0.0
4820 -39.475882 100.751734 -34.299309 105 107 103 0.0
4821 -53.902881 112.843850 21.984389 131 131 131 0.0
4822 113.433477 36.281734 -64.741522 243 239 242 0.0
4823 48.513489 -35.042824 102.397728 103 101 100 0.0
4824 40.797080 -59.764132 6.494423 175 174 180 0.0
4825 75.509877 25.733781 -22.127801 21 16 21 0.0
4826 85.371966 -35.571344 -64.586330 133 128 136 0.0
4827 -43.202616 -1.293026 -1.042003 99 97 94 0.0
4828 22.168070 30.455051 -10.139958 128 131 129 0.0
4829 48.481685 -41.680245 59.506979 234 233 230 0.0
4830 64.823654 -63.013411 -15.756480 101 106 106 0.0
4831 61.516623 25.873097 -44.928950 43 46 46 0.0
4832 -6.160666 16.291408 97.493136 37 41 42 0.0
4833 115.186123 110.786154 -31.641533 162 163 165 0.0
4834 31.000842 -53.788985 86.855500 212 211 210 0.0
4835 13.421892 -37.216559 100.808126 129 124 127 0.0
4836 57.829679 -4.501679 57.546831 219 215 221 0.0
4837 -14.236782 11.235042 -21.441340 18 16 23 0.0
4838 102.750457 -5.496638 -8.171372 111 116 113 0.0
4839 105.209395 26.107528 -63.376283 108 113 112 0.0
4840 91.087263 57.268011 49.922154 85 84 82 0.0
4841 99.208503 -16.105162 107.382979 57 56 55 0.0
4842 27.559438 98.337954 96.046331 205 207 210 0.0
4843 26.443499 92.840092 -63.311113 119 118 121 0.0
4844 102.048632 46.666775 -24.083458 99 98 99 0.0
4845 67.077838 -31.344470 100.151410 201 201 197 0.0
4846 14.957492 17.120643 -23.969813 208 211 206 0.0
4847 22.612830 -5.951161 51.317365 29 26 25 0.0
4848 30.239998 -12.806539 109.511864 206 209 204 0.0
4849 5.254744 -18.557497 86.295818 65 60 69 0.0
4850 -8.184046 92.497888 61.067420 232 230 227 0.0
4851 -46.037231 116.453621 -31.886564 138 139 133 0.0
4852 65.546299 28.714162 -66.453585 218 222 216 0.0
4853 -58.334027 -69.786307 31.905805 44 41 42 0.0
4854 62.467191 93.240995 -3.953575 172 175 174 0.0
4855 19.618407 -34.779976 -41.312466 149 149 147 0.0
4856 75.867518 2.558686 23.098480 148 150 153 0.0
4857 -20.322047 91.820573 62.026943 164 162 160 0.0
4858 -59.131572 61.449493 87.522805 75 70 74 0.0
4859 49.869138 35.018723 73.287505 13 17 10 0.0
4860 -7.734579 9.451375 -7.529525 33 30 38 0.0
4861 99.376613 -28.154860 -10.622636 98 100 102 0.0
4862 -23.153548 14.192136 -52.754472 237 240 234 0.0
4863 72.743352 -62.194851 89.756646 149 153 154 0.0
4864 21.929584 71.500133 -37.902183 49 46 44 0.0
4865 71.870781 38.571533 -41.189217 46 43 41 0.0
4866 54.289104 10.607716 86.930879 73 76 70 0.0
4867 -21.406277 110.336967 90.996677 13 11 14 0.0
4868 -37.884353 -42.350254 73.387293 47 43 42 0.0
4869 -67.223507 -32.125859 26.501299 213 209 212 0.0
4870 -63.071807 -5.462816 -26.963836 77 77 77 0.0
4871 80.001361 13.012402 -59.586208 128 132 123 0.0
4872 20.868991 -68.000672 25.043641 40 35 44 0.0
4873 -2.011333 29.450971 -3.404630 45 42 45 0.0
4874 -68.295234 -51.102904 98.882753 247 244 247 0.0
4875 80.801162 -41.773293 37.244851 117 122 121 0.0
4876 3.465991 84.413408 -16.329886 122 120 121 0.0
4877 73.499351 -18.429938 -31.972535 46 43 41 0.0
4878 2.783389 119.944546 -50.168860 124 124 119 0.0
4879 105.495365 104.416067 -20.693151 168 169 172 0.0
4880 29.687629 111.418833 7.478521 32 27 36 0.0
4881 117.134861 -0.175524 36.084055 58 55 60 0.0
4882 -59.961290 -25.817885 42.012371 8 7 12 0.0
4883 28.384403 114.654237 0.306232 156 152 156 0.0
4884 96.789572 42.706577 -59.647436 179 181 179 0.0
4885 114.550637 -25.530978 -68.827241 211 207 214 0.0
4886 23.784392 -7.798760 19.512269 58 59 53 0.0
4887 17.508941 107.701104 109.730796 206 205 203 0.0
4888 -35.635141 17.901538 -40.574844 211 214 212 0.0
4889 51.205263 -69.740761 79.433394 163 166 161 0.0
4890 -29.986911 97.208770 62.527475 233 230 231 0.0
4891 101.520027 22.646541 -62.530846 154 149 153 0.0
4892 63.977924 5.563951 -18.734994 97 94 102 0.0
4893 -56.529702 -49.584128 118.560234 195 197 192 0.0
4894 52.901367 93.079235 -24.356839 70 73 70 0.0
4895 33.638397 81.287916 -3.454662 221 217 218 0.0
4896 -69.637480 -30.011556 113.592749 160 157 162 0.0
4897 24.941760 45.936484 69.008677 57 55 58 0.0
4898 67.547545 62.983458 -10.490538 178 179 178 0.0
4899 42.453559 101.748859 -47.841817 119 114 120 0.0
4900 43.326707 -54.653048 67.684102 30 30 32 0.0
4901 22.963822 -65.923101 40.301083 135 135 135 0.0
4902 74.383161 78.790866 63.379588 94 90 97 0.0
4903 -30.403819 85.834162 -64.952499 94 99 93 0.0
4904 29.051184 62.401423 88.374639 62 64 66 0.0
4905 51.658194 105.018757 36.016586 190 189 189 0.0
4906 81.149097 49.462844 -46.071766 227 228 222 0.0
4907 88.841668 2.501769 -38.017632 90 93 92 0.0
4908 27.066226 90.740729 -60.305546 188 189 186 0.0
4909 110.115570 17.887428 102.305047 208 208 211 0.0
4910 35.182143 -17.877223 119.924841 59 57 55 0.0
4911 92.415502 64.219103 61.768703 180 183 183 0.0
4912 5.082774 1.780603 -62.584888 147 147 152 0.0
4913 71.676161 -43.400808 0.752402 244 246 243 0.0
4914 -3.596694 23.349256 82.669873 79 84 84 0.0
4915 20.590558 64.307099 -37.187924 42 44 41 0.0
4916 -26.641983 69.443117 8.140725 127 132 128 0.0
4917 95.235423 -51.915194 -5.704038 225 223 229 0.0
4918 -40.737261 -57.338156 -48.967566 31 31 27 0.0
4919 103.118060 68.260287 95.101751 13 16 12 0.0
4920 -38.919536 68.197010 61.878261 54 50 52 0.0
4921 113.527266 105.076562 -50.396402 43 46 48 0.0
4922 65.635730 80.390502 117.766686 215 210 210 0.0
4923 1.645072 -26.352923 -24.619147 166 164 163 0.0
4924 94.810244 -56.761937 1.224176 91 95 93 0.0
4925 -62.462849 72.121887 31.464379 73 74 74 0.0
4926 12.248923 25.934952 89.196847 49 51 52 0.0
4927 53.196348 -13.768645 42.723914 41 37 46 0.0
4928 -5.543722 5.964917 61.014105 212 208 213 0.0
4929 92.343545 73.300491 0.778562 67 67 62 0.0
4930 40.386474 82.980108 83.273593 147 145 151 0.0
4931 61.429043 5.544914 102.608318 236 237 231 0.0
4932 -20.447898 -36.720789 -32.709759 66 66 68 0.0
4933 -65.237491 -25.299182 87.941682 149 146 151 0.0
4934 65.694472 8.288309 65.281193 118 116 114 0.0
4935 7.840129 -43.063196 112.768621 250 251 246 0.0
4936 -9.725048 81.503527 -63.838619 238 240 240 0.0
4937 -38.852831 -58.114053 19.872039 62 66 59 0.0
4938 -56.750673 -57.335425 102.597550 30 29 32 0.0
4939 89.437683 -66.187283 -32.062882 108 108 105 0.0
4940 0.601633 31.137931 4.236943 227 230 227 0.0
4941 91.112929 118.211098 32.766771 68 66 69 0.0
4942 63.288418 93.338807 45.005853 162 166 160 0.0
4943 66.716931 97.746945 55.333934 98 95 101 0.0
4944 -66.867209 117.921308 -16.197725 211 215 208 0.0
4945 -21.531306 20.193138 -2.409042 133 136 130 0.0
4946 -44.255262 34.597103 75.154372 11 9 16 0.0
4947 87.768979 5.682402 68.923236 79 81 81 0.0
4948 -9.718767 -41.036152 97.903136 249 245 253 0.0
4949 17.136495 47.490729 17.126888 24 25 20 0.0
4950 32.100525 97.724603 20.258026 34 30 30 0.0
4951 -7.040818 -63.764053 -67.419434 129 125 130 0.0
4952 -58.581292 73.971942 74.199547 10 11 8 0.0
4953 15.459369 118.887733 102.648979 36 33 41 0.0
4954 -58.457929 -67.560684 -44.888341 14 11 19 0.0
4955 90.471092 -68.082142 32.873058 209 213 206 0.0
4956 -43.603906 105.268547 76.462263 23 28 23 0.0
4957 79.191999 2.767055 35.901832 227 225 228 0.0
4958 108.620152 56.400273 117.435302 168 166 166 0.0
4959 -11.787940 -14.381750 -20.889499 57 57 52 0.0
4960 72.530671 -43.949744 18.895676 149 153 153 0.0
4961 106.322035 27.250810 49.879959 248 251 248 0.0
4962 24.263593 115.188380 68.431067 228 233 223 0.0
4963 -48.662280 -19.651719 -42.858157 184 189 180 0.0
4964 49.038056 65.107221 -24.032898 55 56 50 0.0
4965 116.497868 -26.835939 23.228358 64 59 62 0.0
4966 -2.147920 98.694292 -30.460561 137 139 136 0.0
4967 77.560148 -54.009309 28.864117 158 163 158 0.0
4968 72.769659 118.540901 66.401346 88 91 85 0.0
4969 -39.303724 22.681290 96.838582 72 69 74 0.0
4970 39.853218 -6.284065 29.721024 35 39 32 0.0
4971 -13.393663 -41.392983 84.905615 187 187 182 0.0
4972 -26.940230 89.017962 84.632403 239 238 239 0.0
4973 35.821013 41.461146 75.107336 104 108 99 0.0
4974 109.516800 10.279266 -12.593613 218 222 218 0.0
4975 -61.239398 32.997342 -60.880791 149 149 154 0.0
4976 -6.808543 12.192850 97.478695 188 185 183 0.0
4977 -61.094363 15.449451 61.329118 160 165 165 0.0
4978 -16.221770 -38.145932 103.298856 104 109 100 0.0
4979 77.188494 50.395148 78.751214 234 239 233 0.0
4980 -14.891952 20.971024 68.080760 81 77 76 0.0
4981 28.479968 22.976070 -2.744715 237 242 232 0.0
4982 -52.207242 36.519508 60.571691 145 145 147 0.0
4983 49.908018 -45.917837 -26.144001 15 13 18 0.0
4984 73.815340 -68.635778 42.224813 177 172 182 0.0
4985 41.027262 95.704636 -19.906152 184 189 182 0.0
4986 16.047560 -30.989436 72.741836 174 175 170 0.0
4987 -49.915232 -52.007238 73.807749 184 189 183 0.0
4988 11.575294 -69.681411 12.806750 83 84 87 0.0
4989 82.909695 43.843107 -66.574621 120 125 122 0.0
4990 0.841362 66.016750 44.956219 148 146 143 0.0
4991 -53.364227 -15.945964 19.227671 62 65 64 0.0
4992 92.999626 66.433127 -43.036395 232 236 231 0.0
4993 5.627318 -56.139629 39.358714 83 88 80 0.0
4994 109.964592 -40.087734 117.540427 81 84 85 0.0
4995 63.779296 -53.262279 -20.170853 159 158 158 0.0
4996 26.581371 109.831119 -38.011208 82 79 80 0.0
4997 43.926415 84.808094 32.087944 27 30 30 0.0
4998 61.915548 50.669629 86.957492 213 216 211 0.0
4999 93.682691 -33.626798 65.647711 194 199 195 0.0
5000 113.436692 84.459161 51.986650 248 252 252 0.0
5001 24.023312 -47.045335 113.377345 31 29 35 0.0
5002 119.938600 -45.741676 1.617572 131 131 135 0.0
5003 9.737194 10.891979 -3.625385 145 146 147 0.0
5004 -37.296234 115.068253 82.315194 165 166 166 0.0
5005 21.665079 34.180369 -65.458840 27 26 25 0.0
5006 -38.419316 -62.582761 2.524815 41 43 44 0.0
5007 -20.362516 62.186984 -48.919658 200 198 202 0.0
5008 18.681412 50.327129 53.849777 73 72 77 0.0
5009 105.058344 6.363110 27.503742 175 173 171 0.0
5010 16.161703 89.094488 -58.004854 29 28 33 0.0
