# 3D point list with the following format:
# POINT3D_ID, X, Y, Z, R, G, B, ERROR, TRACK[] as (IMAGE_ID, POINT2D_IDX)
5409 31.241196 -4.872391 3.209594 32 26 22 0.0
5410 -0.175307 4.082920 15.144975 4 16 24 0.0
5411 2.734731 -4.802210 15.167346 69 73 77 0.0
5412 24.845175 0.883665 39.626606 211 207 198 0.0
5413 28.539476 -3.918325 -1.017189 254 254 253 0.0
5414 1.919032 2.470843 28.301531 176 174 172 0.0
5415 94.851044 -1.818903 -39.393143 154 155 155 0.0
5416 3.607639 2.738503 30.992886 171 171 168 0.0
5417 -4.541667 2.523758 18.994314 153 164 174 0.0
5418 -2.256395 4.600090 11.445856 190 185 174 0.0
5419 -1.525019 4.166938 15.388816 30 32 32 0.0
5420 18.866177 4.299986 41.409252 219 210 194 0.0
5421 93.854576 0.910998 -40.473862 118 124 121 0.0
5422 -3.183694 4.724271 9.987810 176 170 159 0.0
5423 -2.854021 3.873736 15.051540 50 52 52 0.0
5424 -1.029769 2.996465 17.605797 80 82 79 0.0
5425 6.665387 4.314538 31.319496 169 141 130 0.0
5426 -4.106244 -1.186472 13.147250 163 168 174 0.0
5427 2.514916 3.937590 18.147625 150 158 173 0.0
5428 43.738041 2.995714 26.168346 69 95 30 0.0
5429 -2.917201 4.546692 18.588608 16 21 26 0.0
5430 -5.808831 4.244549 14.741274 46 44 45 0.0
5431 75.154877 9.576510 -29.719099 53 32 12 0.0
5432 2.855913 -5.959884 16.545132 155 157 157 0.0
5433 0.965194 4.682935 13.502526 157 172 184 0.0
5434 1.208074 4.551373 13.445604 123 128 137 0.0
5435 15.869704 -4.269779 38.490765 102 94 70 0.0
5436 -4.881311 4.653440 10.386973 166 157 147 0.0
5437 75.595161 11.425331 -30.092997 40 42 36 0.0
5438 -4.881311 4.653440 10.386973 166 157 147 0.0
5439 49.129322 7.753365 -38.782787 118 104 75 0.0
5440 -1.149445 4.682171 10.016116 116 114 108 0.0
5441 74.040382 11.829248 -28.163502 116 117 103 0.0
5442 -0.603672 4.874616 9.208429 133 142 148 0.0
5443 70.145416 12.432931 -45.930248 104 91 83 0.0
5444 -2.412678 4.724253 8.578434 196 191 181 0.0
5445 77.194374 13.481200 -31.703686 9 16 19 0.0
5446 3.845938 -4.860505 16.894110 198 218 241 0.0
5447 90.398163 16.623194 -43.743027 89 95 98 0.0
5448 1.239191 2.322392 27.133930 211 211 208 0.0
5449 75.566490 13.896959 -29.611837 14 19 21 0.0
5450 -8.108870 2.214166 11.919227 205 201 198 0.0
5451 85.980942 16.462904 -41.166008 213 228 238 0.0
5452 -4.013851 3.521228 19.767090 127 139 150 0.0
5453 42.057465 6.184859 23.527103 181 173 163 0.0
5454 8.325039 4.697733 22.106194 178 188 202 0.0
5455 26.679224 4.158245 -3.875695 103 98 81 0.0
5456 2.108925 4.297305 16.205711 106 109 111 0.0
5457 77.320549 16.649893 -27.788794 66 72 77 0.0
5458 -0.131594 0.999874 25.297033 114 108 99 0.0
5459 -3.013824 4.663902 10.998855 138 132 122 0.0
5460 2.099342 4.272564 16.027605 106 109 111 0.0
5461 78.647491 16.971945 -28.213964 66 72 77 0.0
5462 3.353716 -4.376532 17.978405 44 45 44 0.0
5463 -2.987596 4.079860 12.758683 20 25 32 0.0
5464 -0.191272 5.388998 10.440351 105 114 123 0.0
5465 77.403458 18.007774 -28.992414 63 67 69 0.0
5466 4.740808 1.356542 32.253719 190 185 184 0.0
5467 34.568275 14.508497 24.812216 141 136 130 0.0
5468 -0.791981 4.861083 8.916955 142 149 159 0.0
5469 75.272110 17.844278 -25.235054 205 206 209 0.0
5470 4.749564 1.357144 32.309658 190 185 184 0.0
5471 3.660322 -4.700256 16.888664 180 201 225 0.0
5472 74.685181 17.906860 -25.721872 201 206 207 0.0
5473 25.091358 5.556662 9.190909 133 133 130 0.0
5474 2.270791 6.388902 14.207571 131 140 149 0.0
5475 2.671430 -5.728153 22.754690 96 97 100 0.0
5476 25.526279 4.767711 -5.403987 179 161 134 0.0
5477 -0.454323 5.020061 9.429580 167 172 182 0.0
5478 71.519043 17.657158 -20.829393 197 197 191 0.0
5479 2.077893 -4.448839 18.106108 98 100 100 0.0
5480 62.172680 16.354877 -29.812178 76 73 67 0.0
5481 -5.092577 3.434080 18.500044 151 160 169 0.0
5482 43.854660 12.760352 -40.121765 163 164 148 0.0
5483 -1.250172 -8.712234 24.877907 128 132 140 0.0
5484 -5.309556 -3.967215 17.645866 123 131 141 0.0
5485 -3.577751 -2.515289 20.222170 106 108 105 0.0
5486 -1.889761 1.161432 26.679174 169 178 187 0.0
5487 23.555367 4.040806 34.195591 168 168 164 0.0
5488 22.316872 5.531915 -4.978804 192 171 142 0.0
5489 -0.058418 4.689172 10.187384 190 188 184 0.0
5490 19.387634 5.355155 -0.910465 212 196 171 0.0
5491 -3.087744 2.441595 20.841774 105 107 104 0.0
5492 1.533070 3.953896 17.251705 15 19 26 0.0
5493 2.978217 -4.495644 18.955563 167 167 166 0.0
5494 20.114889 5.577182 1.933560 174 162 147 0.0
5495 -0.120262 0.546284 28.508898 111 114 111 0.0
5496 19.069702 5.419474 -2.601417 151 135 111 0.0
5497 3.758890 -1.528881 23.916025 190 195 196 0.0
5498 18.762053 5.470078 -5.393056 162 143 113 0.0
5499 -4.949140 4.603311 12.862808 93 87 74 0.0
5500 23.492292 5.351189 6.859566 102 100 98 0.0
5501 21.370251 2.352116 41.345371 173 167 156 0.0
5502 18.688637 5.391359 -3.672241 189 172 144 0.0
5503 18.935196 5.368605 0.223565 156 142 128 0.0
5504 39.167465 16.804697 -36.503487 171 177 184 0.0
5505 2.124719 -5.214016 18.174320 83 79 68 0.0
5506 17.408756 5.618701 -1.819479 178 164 142 0.0
5507 16.511185 -13.792647 37.656364 168 170 163 0.0
5508 -3.433094 -1.030186 20.416945 168 177 181 0.0
5509 39.686531 1.756405 -37.282974 162 151 121 0.0
5510 25.065472 7.955420 8.255000 64 64 59 0.0
5511 0.302961 4.688487 11.342674 125 125 120 0.0
5512 -7.656911 0.121520 14.391260 158 153 148 0.0
5513 8.991806 13.602381 24.588558 121 113 92 0.0
5514 -3.112724 4.699468 10.283348 188 182 175 0.0
5515 -3.071766 -0.433056 20.969311 154 160 165 0.0
5516 36.681046 2.979305 -0.847454 255 254 255 0.0
5517 17.307127 -16.501991 30.231529 251 251 251 0.0
5518 -3.634321 4.591448 8.821043 191 185 174 0.0
5519 -0.443167 -0.324308 25.419119 143 141 139 0.0
5520 51.605270 7.749786 -42.290863 108 93 75 0.0
5521 -8.000963 1.780655 14.098983 128 126 119 0.0
5522 45.934357 9.821236 -39.799690 51 48 37 0.0
5523 1.037644 2.526068 20.761269 177 176 166 0.0
5524 23.820263 3.607053 -1.471110 124 115 90 0.0
5525 2.795161 -4.781960 17.779503 99 94 89 0.0
5526 -1.730951 4.240732 12.061749 65 70 66 0.0
5527 25.369862 4.360607 -5.041951 172 157 125 0.0
5528 -1.116046 2.913480 17.298178 101 101 101 0.0
5529 75.513885 17.539110 -23.569078 65 69 71 0.0
5530 -0.665353 3.106284 17.298429 246 246 237 0.0
5531 24.513577 5.474099 8.301799 147 138 126 0.0
5532 -7.403131 3.289568 15.067221 158 158 151 0.0
5533 21.318455 5.420434 -0.133171 219 199 172 0.0
5534 -7.403131 3.289568 15.067221 158 158 151 0.0
5535 20.628553 5.345707 2.311620 213 204 193 0.0
5536 5.413541 4.596725 19.185392 200 196 185 0.0
5537 19.453207 5.274397 -2.745435 212 196 173 0.0
5538 2.355592 4.669093 16.180559 80 95 108 0.0
5539 43.514988 3.924377 25.695150 53 76 91 0.0
5540 1.969973 4.663490 16.545643 113 119 128 0.0
5541 18.585871 5.424578 -4.529699 147 128 100 0.0
5542 0.257608 4.619746 13.018949 214 214 217 0.0
5543 1.032049 4.745259 11.711748 182 179 173 0.0
5544 26.099472 5.970476 9.357579 109 108 97 0.0
5545 2.147791 4.722917 15.337281 196 212 227 0.0
5546 -3.250658 4.637801 11.747570 152 141 120 0.0
5547 -5.439085 4.618517 12.154683 180 172 152 0.0
5548 73.563713 11.465091 -28.736795 248 248 247 0.0
5549 42.058247 14.555459 26.327263 125 132 141 0.0
5550 4.390678 9.016857 17.469736 153 164 179 0.0
5551 4.192023 9.338105 17.947151 163 166 174 0.0
5552 77.156487 15.381732 -29.680485 22 27 31 0.0
5553 6.777584 -0.703557 10.520270 252 252 253 0.0
5554 50.216221 10.627618 -30.873987 65 46 32 0.0
5555 -5.844893 4.630225 9.926251 178 170 146 0.0
5556 24.071192 3.612618 -1.001361 101 95 82 0.0
5557 -4.349354 -0.714262 19.163000 149 154 160 0.0
5558 71.904915 11.184702 -26.222155 163 163 154 0.0
5559 7.399784 0.763687 34.464382 224 215 211 0.0
5560 26.615152 -16.158474 23.882921 252 254 255 0.0
5561 -3.213452 3.026016 20.887463 157 165 170 0.0
5562 -2.217891 3.812378 21.772406 161 167 172 0.0
5563 67.541328 43.926491 -46.518135 190 166 127 0.0
5564 -1.671814 4.473646 12.112350 163 163 159 0.0
5565 -3.919035 4.643737 12.160141 168 160 136 0.0
5566 24.916821 1.859968 -1.282523 128 126 122 0.0
5567 -3.927649 4.664705 10.895281 130 121 102 0.0
5568 71.198921 12.946606 -46.243259 108 96 83 0.0
5569 -5.455544 0.436259 18.078266 167 173 179 0.0
5570 19.265636 7.312112 -5.447376 120 102 62 0.0
5571 -5.282993 2.648700 17.763353 117 122 126 0.0
5572 1.111177 3.938601 19.007742 22 32 42 0.0
5573 89.154121 17.960064 -43.586632 98 98 97 0.0
5574 -6.635354 4.597886 14.957414 161 152 130 0.0
5575 -4.449613 4.679120 11.425267 99 87 66 0.0
5576 19.497362 6.578011 -20.004911 36 38 38 0.0
5577 -4.678009 -1.152637 19.977438 148 156 163 0.0
5578 19.327177 7.277721 -20.230537 77 75 71 0.0
5579 3.060534 -1.283078 22.470226 141 143 140 0.0
5580 -6.115204 2.237476 16.526821 153 157 161 0.0
5581 28.177984 -5.402370 0.064803 255 253 252 0.0
5582 -4.378787 2.589282 19.256012 121 129 134 0.0
5583 95.357933 4.993455 -41.192699 84 86 79 0.0
5584 -4.381408 2.589031 19.265162 121 129 134 0.0
5585 -4.641373 4.639318 11.390743 98 88 69 0.0
5586 64.256439 21.181866 -40.351856 11 11 11 0.0
5587 -3.389846 4.650976 10.268452 187 178 161 0.0
5588 63.866756 21.165865 -40.278522 11 11 11 0.0
5589 -5.904819 2.831876 17.116375 144 148 151 0.0
5590 -5.090620 4.712635 10.556239 179 170 147 0.0
5591 31.641008 -5.273303 -0.714570 112 104 79 0.0
5592 76.066345 5.900882 -60.495743 138 115 72 0.0
5593 18.679123 -9.778303 41.486103 104 106 99 0.0
5594 18.807634 6.967791 -20.449287 105 105 102 0.0
5595 -7.717338 -0.282049 12.968926 143 132 109 0.0
5596 -5.052845 -1.386686 18.282906 123 132 139 0.0
5597 -7.113828 2.269220 15.482661 155 155 152 0.0
5598 94.605988 3.736889 -39.153492 176 187 195 0.0
5599 -1.754295 4.087383 12.113395 26 31 38 0.0
5600 -8.233774 -0.147537 13.702948 148 142 136 0.0
5601 31.003786 0.760608 26.323118 236 247 255 0.0
5602 5.168602 -4.507845 19.535589 162 175 187 0.0
5603 -2.945833 4.639035 18.415058 204 208 211 0.0
5604 -1.425818 4.699326 9.868109 114 109 97 0.0
5605 0.679453 -4.754127 21.700346 89 90 93 0.0
5606 1.192185 4.675782 12.949727 139 138 133 0.0
5607 0.436949 4.382610 13.781914 83 87 89 0.0
5608 -0.040007 -4.813893 15.636571 52 46 34 0.0
5609 -2.282502 -2.806756 21.990772 148 153 158 0.0
5610 27.675135 -4.079216 -1.558710 254 252 233 0.0
5611 -3.714758 4.668862 10.973327 128 122 111 0.0
5612 26.527845 5.034636 -5.761363 160 152 133 0.0
5613 -6.682930 -1.114661 14.141921 158 147 123 0.0
5614 5.424192 -4.584719 26.124336 171 176 175 0.0
5615 19.845995 8.617654 -5.231986 100 88 63 0.0
5616 5.745402 -4.386984 25.993557 183 187 187 0.0
5617 87.711716 -2.288683 -2.333513 51 62 68 0.0
5618 -0.831119 -0.574793 24.249298 128 130 127 0.0
5619 52.351540 -14.258763 19.548944 130 114 87 0.0
5620 29.470840 -3.731949 2.388178 117 108 96 0.0
5621 93.780762 2.476500 -37.680161 175 187 191 0.0
5622 1.371958 4.128493 17.390305 5 9 5 0.0
5623 -2.252325 4.001403 16.696712 3 9 17 0.0
5624 -1.806245 4.071266 14.856068 71 75 80 0.0
5625 -1.355601 4.710704 10.707614 181 180 174 0.0
5626 0.151054 4.830545 12.891176 60 65 71 0.0
5627 -5.603405 4.402045 15.020138 14 17 11 0.0
5628 -4.872046 4.677813 12.514373 174 164 147 0.0
5629 72.073303 11.868837 -28.623451 75 77 77 0.0
5630 -3.595046 -1.671157 12.605424 122 126 128 0.0
5631 70.143967 20.578350 -31.484095 235 238 237 0.0
5632 17.059290 -4.726127 37.728642 104 104 93 0.0
5633 -2.196529 4.838971 8.906646 170 166 159 0.0
5634 55.789188 -3.175159 18.183222 97 88 78 0.0
5635 -0.050850 4.375166 13.244798 126 119 104 0.0
5636 18.481567 5.448647 -0.543777 167 154 135 0.0
5637 -5.939968 4.493901 15.008730 84 77 61 0.0
5638 -2.646978 3.640527 11.313220 24 31 38 0.0
5639 1.212791 4.770958 12.814175 152 147 133 0.0
5640 54.509247 16.248114 -23.236135 57 54 55 0.0
5641 -3.917667 4.626848 13.336622 175 163 139 0.0
5642 -7.051361 -1.067310 14.187917 120 104 70 0.0
5643 32.486080 7.040061 -11.149970 0 0 0 0.0
5644 -4.744781 2.232525 19.043394 148 154 160 0.0
5645 -6.826062 1.107646 15.678870 152 151 154 0.0
5646 3.502484 4.620033 16.293945 202 192 184 0.0
5647 2.652900 4.667063 14.884756 148 150 145 0.0
5648 -3.189636 4.706574 10.760840 183 174 156 0.0
5649 -1.985010 2.721325 5.391565 0 0 0 0.0
5650 93.893150 1.881048 -38.933174 176 188 191 0.0
5651 -1.739565 1.903968 18.370144 143 150 158 0.0
5652 78.904808 17.805925 -24.245670 204 209 214 0.0
5653 12.605884 -1.539248 36.704636 161 163 165 0.0
5654 92.363739 8.857363 -47.503090 151 148 129 0.0
5655 0.417989 3.131181 18.023239 250 250 253 0.0
5656 101.109367 9.951382 -44.211960 23 28 29 0.0
5657 -2.090329 -8.649806 23.525179 21 28 35 0.0
5658 47.861561 -15.267973 19.334215 165 155 125 0.0
5659 -3.161725 -2.492417 20.797554 180 191 201 0.0
5660 76.067024 11.754039 -28.380007 159 160 148 0.0
5661 -2.497478 -2.555824 21.726786 157 164 174 0.0
5662 70.285194 13.154946 -43.182877 163 165 164 0.0
5663 -4.176657 -1.538731 19.554394 129 141 153 0.0
5664 9.596807 2.903162 13.679264 224 239 254 0.0
5665 36.518112 -0.103551 34.895142 228 241 254 0.0
5666 -5.373848 -0.989123 16.933611 140 151 164 0.0
5667 62.442368 12.269978 -38.128254 203 205 205 0.0
5668 15.703991 -2.486304 38.509041 104 106 99 0.0
5669 3.887738 1.003840 34.137280 210 208 203 0.0
5670 21.231663 5.485200 -3.960668 212 194 165 0.0
5671 -7.942036 1.902616 13.824653 189 189 189 0.0
5672 -7.637117 2.497397 14.223943 185 185 185 0.0
5673 40.565891 3.864077 25.769281 152 187 203 0.0
5674 70.982224 11.133174 -44.660511 73 68 62 0.0
5675 70.890221 11.125270 -44.611462 73 68 62 0.0
5676 17.976822 5.406028 -4.350855 187 168 141 0.0
5677 8.960060 4.307449 26.361456 187 180 174 0.0
5678 24.913033 10.583002 -24.747324 31 20 5 0.0
5679 20.978647 4.639671 30.678020 156 160 162 0.0
5680 -5.200293 4.462913 14.794532 89 91 91 0.0
5681 -0.405359 4.963924 15.217207 13 13 16 0.0
5682 -1.666015 4.141127 16.670931 66 70 76 0.0
5683 -4.041956 4.624930 9.035993 196 191 178 0.0
5684 -0.544835 5.042219 16.577166 17 27 36 0.0
5685 20.196333 5.490878 -15.522746 6 5 2 0.0
5686 78.408081 14.495582 -37.199623 193 212 225 0.0
5687 80.744965 15.138286 -38.080307 193 212 225 0.0
5688 -1.381140 4.390890 11.981764 30 40 48 0.0
5689 -0.470242 4.704172 10.762943 199 194 190 0.0
5690 90.405708 7.527682 -44.745937 105 97 69 0.0
5691 -0.622970 4.773494 9.251187 151 150 149 0.0
5692 -0.912259 4.771307 8.904175 194 193 193 0.0
5693 -2.789743 0.126897 21.210974 163 174 184 0.0
5694 -1.260599 2.050563 17.465593 183 192 201 0.0
5695 3.970056 -4.250218 18.599251 30 23 10 0.0
5696 -3.602191 4.742082 8.959614 188 182 171 0.0
5697 -0.639115 2.126742 18.626184 175 184 193 0.0
5698 27.215841 2.647984 37.805187 161 169 179 0.0
5699 54.357895 -5.031161 18.859175 119 113 101 0.0
5700 -1.774889 4.696412 8.911120 191 186 180 0.0
5701 3.931709 3.866967 21.713676 205 207 207 0.0
5702 7.920950 -0.647727 -5.069561 0 0 0 0.0
5703 -5.074217 4.656759 12.530354 193 187 175 0.0
5704 2.616545 4.931644 13.875968 171 180 189 0.0
5705 20.926483 -0.587197 39.247219 175 156 128 0.0
5706 3.467212 -5.279044 19.205175 148 148 151 0.0
5707 -4.609794 4.624654 11.517477 180 175 165 0.0
5708 76.348541 10.296507 -29.135176 11 8 5 0.0
5709 75.964859 13.394334 -27.575201 111 117 119 0.0
5710 -4.853525 -2.836289 15.632331 135 144 150 0.0
5711 -3.092520 0.701240 21.390774 163 174 184 0.0
5712 32.280682 5.835145 -2.741702 108 110 111 0.0
5713 -5.593904 4.708082 11.795642 195 187 175 0.0
5714 27.848532 6.547179 12.241598 164 158 147 0.0
5715 -1.792336 4.696100 9.071301 194 189 184 0.0
5716 22.809486 5.744844 -5.366628 223 203 174 0.0
5717 -6.689158 4.603820 10.741242 186 177 163 0.0
5718 21.936911 9.635998 3.588183 184 175 158 0.0
5719 -0.058418 4.689172 10.187384 190 188 184 0.0
5720 42.499523 4.563442 26.696564 126 152 149 0.0
5721 14.956582 -9.160979 38.293568 119 128 126 0.0
5722 -0.361360 2.232483 18.024584 180 184 187 0.0
5723 3.111297 3.906020 22.247721 87 87 93 0.0
5724 -4.360854 3.849039 14.009443 10 17 22 0.0
5725 38.026295 -1.848713 26.521679 184 196 200 0.0
5726 14.106866 -4.904968 37.574242 103 108 107 0.0
5727 19.325653 -7.919940 -22.099890 113 100 68 0.0
5728 -5.937780 0.913441 16.785103 139 150 161 0.0
5729 67.807076 15.470555 -23.646917 75 82 84 0.0
5730 53.298836 -0.606462 19.655731 126 118 105 0.0
5731 -2.867631 4.693495 9.585728 142 136 126 0.0
5732 -3.582196 1.021304 20.537600 161 174 186 0.0
5733 69.760025 15.894417 -24.375195 75 82 84 0.0
5734 -3.060353 1.292154 21.164890 160 171 183 0.0
5735 25.680954 5.159703 9.625650 209 201 191 0.0
5736 4.562762 1.036848 31.975466 186 184 182 0.0
5737 4.562762 1.036848 31.975466 186 184 182 0.0
5738 24.380079 7.456176 5.632452 116 114 110 0.0
5739 -0.250213 5.521129 10.410361 96 104 111 0.0
5740 9.310637 1.097377 39.305489 185 179 176 0.0
5741 22.355551 -5.873037 -24.669750 200 183 148 0.0
5742 9.298021 1.098887 39.253212 185 179 176 0.0
5743 0.778922 2.446134 25.926426 168 169 172 0.0
5744 2.117092 2.759222 28.701044 170 168 166 0.0
5745 0.725934 3.028619 17.949594 173 174 177 0.0
5746 20.116409 10.252944 -20.408495 37 29 18 0.0
5747 -1.694163 3.115942 17.878355 105 111 119 0.0
5748 35.531250 -10.655577 -32.683857 162 153 136 0.0
5749 -7.583014 3.005551 14.657822 159 158 161 0.0
5750 8.920696 2.840356 12.871751 109 118 126 0.0
5751 -2.643505 3.938255 20.306374 144 153 163 0.0
5752 94.375801 -1.532826 -41.340050 81 74 57 0.0
5753 0.436236 3.619871 17.600323 201 214 233 0.0
5754 95.242104 -0.193935 -38.793739 60 70 71 0.0
5755 -1.604399 3.930747 17.176546 3 4 8 0.0
5756 94.484840 3.747753 -39.093166 178 189 198 0.0
5757 -4.273165 3.995082 14.246271 22 29 34 0.0
5758 -1.441935 4.655727 17.940626 81 85 93 0.0
5759 75.689011 10.787055 -30.469210 137 137 123 0.0
5760 -1.662717 1.816783 23.069803 113 111 107 0.0
5761 -1.862646 4.697320 8.757360 152 149 140 0.0
5762 -4.856325 4.206193 14.075109 12 13 17 0.0
5763 35.183983 5.492346 23.223703 122 122 116 0.0
5764 4.436366 4.761001 16.565926 175 179 184 0.0
5765 18.390041 3.514373 -9.876601 70 65 60 0.0
5766 1.974409 4.741006 15.839648 138 139 142 0.0
5767 -3.996377 4.642583 9.401660 171 165 154 0.0
5768 29.948841 -3.437802 2.018656 255 253 246 0.0
5769 94.980377 -1.830877 -42.419567 146 141 116 0.0
5770 10.124054 12.901162 27.126209 202 206 207 0.0
5771 96.052139 -0.271258 -36.571144 167 172 172 0.0
5772 -1.834723 4.738464 8.485072 190 184 177 0.0
5773 20.899866 5.430954 -2.418440 215 200 177 0.0
5774 8.928758 12.213212 24.691740 201 204 208 0.0
5775 -3.711583 -4.097388 19.924829 136 145 156 0.0
5776 21.663795 10.505544 -6.191395 186 165 125 0.0
5777 -2.985718 -3.423615 21.089188 155 164 173 0.0
5778 95.440140 -0.785060 -42.817917 145 140 115 0.0
5779 -3.656587 -0.751258 20.719803 165 176 186 0.0
5780 96.181671 3.759175 -36.136326 174 190 195 0.0
5781 26.396067 4.368256 38.021873 163 164 165 0.0
5782 0.363533 3.453563 17.459269 64 76 92 0.0
5783 43.210377 4.218560 4.152627 253 253 253 0.0
5784 -3.172271 4.196642 20.806385 42 52 63 0.0
5785 93.636475 15.821873 -47.703564 168 173 164 0.0
5786 -0.574428 5.127948 9.283769 170 176 181 0.0
5787 3.634641 -4.784232 16.831238 150 175 202 0.0
5788 2.995414 -0.573352 24.327505 153 149 145 0.0
5789 15.234769 1.052092 5.611133 90 85 81 0.0
5790 -3.134922 4.652641 10.604499 193 187 178 0.0
5791 11.209099 -1.894469 34.852192 187 191 195 0.0
5792 4.188577 -1.060459 -1.229849 230 221 182 0.0
5793 -3.929136 -0.156965 19.979607 170 181 193 0.0
5794 -8.493887 3.814716 13.887421 180 180 177 0.0
5795 62.856647 11.034310 -43.829887 167 170 168 0.0
5796 0.636932 4.690839 12.707498 197 199 199 0.0
5797 24.124723 4.836564 0.582784 188 173 138 0.0
5798 6.174716 5.672309 20.173321 170 179 188 0.0
5799 15.972821 5.523710 -4.296246 166 150 122 0.0
5800 -4.047812 4.691879 9.222768 167 162 149 0.0
5801 85.770897 15.151248 -40.966110 195 213 228 0.0
5802 1.249942 0.972724 29.411692 182 177 170 0.0
5803 43.783539 17.573452 -39.646145 177 177 172 0.0
5804 -3.339330 -3.011686 20.841467 122 128 132 0.0
5805 11.470497 -4.660122 34.924301 106 108 108 0.0
5806 -0.138674 -0.245361 24.901711 142 137 129 0.0
5807 0.278609 2.068534 20.930096 160 159 153 0.0
5808 -1.671147 2.842803 17.485020 15 21 16 0.0
5809 -0.973892 2.898835 17.470160 43 41 36 0.0
5810 12.969094 4.427714 2.159988 0 0 0 0.0
5811 -1.885681 4.511889 13.018579 49 47 42 0.0
5812 8.473157 8.181832 18.949743 147 139 115 0.0
5813 -7.473499 4.637150 12.763529 178 169 142 0.0
5814 -7.262155 4.662389 12.327928 176 165 138 0.0
5815 -4.185709 4.638727 11.439110 148 136 115 0.0
5816 5.863146 9.865928 20.033592 132 133 136 0.0
5817 17.958260 9.920799 -18.319679 45 35 24 0.0
5818 -4.731425 4.665151 10.721196 137 125 102 0.0
5819 -4.713548 4.647071 10.681259 137 125 102 0.0
5820 -3.759760 -4.404854 15.438026 0 3 0 0.0
5821 -11.099348 -2.981303 19.623497 0 0 0 0.0
5822 31.751522 -10.641855 -31.648649 169 162 138 0.0
5823 6.182531 -2.410323 17.970568 98 98 89 0.0
5824 62.501225 -10.794480 14.073896 135 131 125 0.0
5825 -2.117145 0.398677 22.655029 153 159 163 0.0
5826 81.196213 -14.182229 -12.761955 250 251 250 0.0
5827 -3.864769 3.098313 20.360485 168 181 193 0.0
5828 0.852439 4.445961 13.527224 121 121 121 0.0
5829 -3.721893 4.593476 13.117554 165 154 127 0.0
5830 81.206276 -14.184361 -12.763190 250 251 250 0.0
5831 -6.839360 4.546318 13.864964 159 148 123 0.0
5832 94.582581 -1.807701 -39.274914 154 159 158 0.0
5833 -7.980210 2.440180 14.096438 141 139 131 0.0
5834 94.766403 5.443469 -36.701561 73 84 91 0.0
5835 17.107067 -14.141426 38.160236 165 165 160 0.0
5836 -2.291379 -4.658837 21.743738 83 85 82 0.0
5837 94.707245 8.659252 -42.137577 8 26 39 0.0
5838 -0.013759 4.730748 13.012264 66 67 72 0.0
5839 1.557536 3.988804 16.834513 149 159 166 0.0
5840 95.342178 14.696820 -42.046535 22 34 37 0.0
5841 -1.866288 2.098959 17.220751 142 149 158 0.0
5842 71.969910 12.720419 -46.135284 103 93 89 0.0
5843 -3.943872 -2.015424 12.671323 158 162 161 0.0
5844 25.189802 4.454638 -0.626478 254 246 232 0.0
5845 -4.747574 4.263122 9.189912 177 168 143 0.0
5846 57.550106 15.927860 -33.110619 72 66 55 0.0
5847 10.486952 3.136425 34.164520 195 177 157 0.0
5848 20.820614 4.075284 41.886082 148 131 98 0.0
5849 -3.311757 -4.791636 16.139923 124 130 138 0.0
5850 22.625233 5.553165 -7.379975 223 203 171 0.0
5851 22.490767 5.506673 -7.349682 223 203 171 0.0
5852 -3.053840 -2.236357 21.182148 170 182 192 0.0
5853 19.521364 5.280489 -1.741163 161 144 118 0.0
5854 17.653133 -4.776837 38.351463 186 190 185 0.0
5855 17.180721 5.255544 -3.296604 197 179 155 0.0
5856 17.861267 5.675138 -1.234568 172 159 132 0.0
5857 5.319111 1.639797 33.513561 192 187 186 0.0
5858 72.967697 -13.195831 -51.829002 254 253 251 0.0
5859 1.142746 1.890177 27.118534 172 172 170 0.0
5860 10.618717 2.686206 35.334339 207 180 167 0.0
5861 96.011795 0.847984 -36.478367 160 169 171 0.0
5862 23.306408 4.266306 40.402004 175 171 158 0.0
5863 13.966957 6.978544 32.577522 162 167 169 0.0
5864 96.249283 4.967342 -36.028893 159 173 179 0.0
5865 11.269530 7.378018 28.403238 184 190 193 0.0
5866 19.424963 2.248161 -4.986942 140 135 130 0.0
5867 -4.896585 4.658246 9.163607 176 167 155 0.0
5868 47.441959 10.248572 -38.043327 43 32 17 0.0
5869 2.905826 6.431371 14.712106 176 187 197 0.0
5870 24.368929 4.247811 0.149342 148 129 89 0.0
5871 24.322062 4.234276 0.421382 153 136 97 0.0
5872 13.205870 13.192168 31.471081 177 171 160 0.0
5873 -4.416066 -2.183400 19.013985 162 175 187 0.0
5874 -0.508166 1.875156 17.589962 145 153 162 0.0
5875 2.579630 4.091555 19.879044 24 30 44 0.0
5876 97.160194 3.211617 -34.198338 171 186 191 0.0
5877 2.554564 4.082286 19.737135 24 30 44 0.0
5878 96.236351 3.763822 -36.159569 173 190 194 0.0
5879 0.180303 4.450825 13.022524 75 76 85 0.0
5880 63.458454 7.817416 -46.314335 116 112 90 0.0
5881 -7.061300 4.625562 12.101177 152 144 131 0.0
5882 0.203310 4.906464 10.504586 166 175 181 0.0
5883 21.920218 10.527176 -6.223415 177 157 118 0.0
5884 6.605487 6.025381 12.517122 0 0 0 0.0
5885 95.771957 1.446755 -37.324841 109 119 124 0.0
5886 -0.985042 4.793131 8.653729 147 151 157 0.0
5887 3.155768 4.563326 16.176744 226 231 241 0.0
5888 -4.175000 4.575842 14.236053 49 50 53 0.0
5889 42.775196 9.826702 -39.249451 152 144 118 0.0
5890 1.005123 4.577464 13.811818 133 137 145 0.0
5891 18.155474 -5.137270 -21.323772 168 158 132 0.0
5892 2.522994 4.775649 13.689116 166 175 184 0.0
5893 20.152428 3.133832 -21.217552 102 108 114 0.0
5894 -3.663184 4.734944 8.771369 191 185 176 0.0
5895 3.506119 4.592108 17.069981 217 226 240 0.0
5896 15.042111 3.767398 28.784081 208 203 192 0.0
5897 14.592429 -5.954619 37.486534 115 121 114 0.0
5898 -1.193440 4.720795 8.419473 189 187 185 0.0
5899 53.167290 -9.857605 -9.423632 0 0 0 0.0
5900 -1.506310 4.777668 8.906267 191 186 181 0.0
5901 95.448280 -1.186187 -41.793022 25 25 20 0.0
5902 -1.522197 4.629786 10.073797 180 175 171 0.0
5903 -5.620287 1.207530 17.749800 139 148 158 0.0
5904 22.983696 -4.959604 -24.573181 170 163 138 0.0
5905 -4.641190 4.135875 13.961200 52 53 55 0.0
5906 -2.807846 4.641200 12.075807 130 122 102 0.0
5907 88.782417 10.269708 -29.916767 33 43 47 0.0
5908 0.665075 1.176080 24.785652 204 203 200 0.0
5909 92.627838 -7.497435 -15.561417 105 94 62 0.0
5910 -3.777946 4.637225 11.091888 183 178 166 0.0
5911 0.415354 3.127202 18.003977 249 250 253 0.0
5912 96.677734 -2.887082 -35.172165 116 116 109 0.0
5913 -4.498801 1.471000 18.710154 133 144 152 0.0
5914 2.004304 6.765754 14.167496 141 147 152 0.0
5915 3.323039 3.788535 22.145952 205 203 194 0.0
5916 79.358902 4.811859 -59.096977 233 180 135 0.0
5917 0.228883 4.364604 13.457385 184 186 194 0.0
5918 0.885082 -4.644424 16.191586 126 128 128 0.0
5919 4.501037 -4.538031 20.663857 138 138 138 0.0
5920 81.967537 18.315723 -29.526751 212 218 220 0.0
5921 13.944802 -8.772787 36.926861 113 119 121 0.0
5922 61.332382 15.561754 -28.364143 22 20 15 0.0
5923 -0.655064 -4.509371 22.735510 113 101 101 0.0
5924 51.049389 13.538377 -29.464989 16 9 3 0.0
5925 -5.764773 -1.049040 17.546738 155 168 180 0.0
5926 17.981375 -1.643965 37.562469 180 180 174 0.0
5927 5.283161 2.228039 33.344872 197 194 196 0.0
5928 19.183279 -7.733425 -22.089579 187 174 146 0.0
5929 5.283662 2.228360 33.351990 197 194 196 0.0
5930 70.033722 -8.231972 16.652868 144 142 134 0.0
5931 -0.757582 2.263985 17.771542 182 190 200 0.0
5932 55.509220 -2.802479 17.782202 186 169 141 0.0
5933 24.194389 2.932564 39.154209 202 200 193 0.0
5934 1.082162 3.076717 27.416483 154 154 154 0.0
5935 48.841297 8.784934 -36.666386 85 80 74 0.0
5936 -3.531397 3.956199 13.273354 57 63 68 0.0
5937 97.122795 3.657785 -35.168762 94 118 122 0.0
5938 -0.525775 5.717106 10.278158 159 167 174 0.0
5939 15.464456 -7.398837 37.142384 192 197 192 0.0
5940 -8.261682 2.836717 13.550817 181 181 179 0.0
5941 -7.878086 3.313616 13.625008 165 165 165 0.0
5942 97.382820 4.256682 -33.445240 139 153 162 0.0
5943 -3.033898 4.666186 10.746098 194 189 179 0.0
5944 -0.202551 5.531290 10.638049 164 172 181 0.0
5945 37.497955 -13.876656 -36.572872 160 154 139 0.0
5946 0.604880 -4.426568 14.818302 88 90 90 0.0
5947 28.424374 -5.213232 0.088234 252 248 247 0.0
5948 0.693513 -7.089472 22.740305 103 104 107 0.0
5949 94.964401 2.585906 -38.797718 51 66 74 0.0
5950 -1.508841 1.833309 17.687645 164 175 185 0.0
5951 11.616890 5.486912 28.597818 80 90 97 0.0
5952 39.467896 6.372458 18.367851 168 159 142 0.0
5953 1.435256 4.656604 13.805393 208 213 217 0.0
5954 3.951642 6.454806 16.654299 150 161 173 0.0
5955 -5.381526 -0.375449 17.671633 134 147 160 0.0
5956 35.500057 14.791194 21.863255 19 17 9 0.0
5957 6.442532 3.214120 31.134806 152 89 75 0.0
5958 18.083557 4.026041 43.883144 183 172 155 0.0
5959 -2.807971 4.105688 13.055066 24 30 37 0.0
5960 2.374222 -4.629058 22.471598 83 83 82 0.0
5961 -0.525880 5.788318 10.306140 75 79 87 0.0
5962 23.094238 5.507137 -3.172838 225 205 177 0.0
5963 2.875520 -4.336902 16.899218 127 127 124 0.0
5964 0.223223 -2.965820 15.017551 139 140 143 0.0
5965 -6.071070 -1.278090 18.188377 133 147 158 0.0
5966 -5.775082 -0.574496 16.795034 130 143 153 0.0
5967 -3.237376 -0.064068 21.010031 132 144 154 0.0
5968 20.980295 3.120833 -2.881495 0 0 0 0.0
5969 22.412832 -0.069523 40.938305 233 225 209 0.0
5970 5.964802 0.606613 34.132488 185 179 176 0.0
5971 1.975816 -1.446343 23.248203 115 115 110 0.0
5972 23.347904 2.350825 36.988174 198 196 192 0.0
5973 19.550369 -1.981009 -20.528969 63 55 42 0.0
5974 2.658490 3.476562 29.523272 208 206 204 0.0
5975 4.671580 4.903577 16.877262 176 184 190 0.0
5976 47.036011 10.242842 -39.923431 37 30 18 0.0
5977 1.203493 4.610423 12.909224 205 205 203 0.0
5978 -4.278154 4.704640 8.823595 167 162 150 0.0
5979 -2.242884 4.683116 8.219370 199 193 184 0.0
5980 2.939512 -4.275513 16.201708 121 123 119 0.0
5981 20.250887 -1.830873 -21.023048 99 90 74 0.0
5982 17.416626 -5.188568 38.657539 196 203 199 0.0
5983 17.416626 -5.188568 38.657539 196 203 199 0.0
5984 -3.616231 -0.729974 20.562906 165 176 186 0.0
5985 24.762348 9.827127 -24.490829 146 140 130 0.0
5986 -0.674047 -0.203834 24.585508 169 173 177 0.0
5987 13.579451 -1.291410 41.974140 191 192 192 0.0
5988 31.857784 14.217883 23.735260 122 104 71 0.0
5989 -0.139743 1.465467 21.248026 183 190 197 0.0
5990 27.322268 -4.328919 -27.161190 144 132 109 0.0
5991 -1.428268 1.964244 23.533642 150 159 168 0.0
5992 36.569382 -4.953725 25.291132 174 186 188 0.0
5993 -7.147824 2.755804 16.287748 141 147 152 0.0
5994 39.892017 9.722908 -20.450268 27 21 15 0.0
5995 3.555007 6.491415 16.196484 142 153 172 0.0
5996 8.497494 4.763316 22.569735 177 187 202 0.0
5997 16.714781 -5.961149 37.789928 115 120 112 0.0
5998 28.637825 4.968513 1.846176 14 5 0 0.0
5999 -0.448558 -3.571195 15.379569 121 122 126 0.0
6000 7.214037 -0.328793 35.366692 247 237 231 0.0
6001 24.188852 4.621592 0.627620 92 82 70 0.0
6002 -2.454637 -3.649242 21.600920 152 158 165 0.0
6003 3.490359 4.625731 18.020645 94 108 125 0.0
6004 5.622074 -0.612261 8.533724 179 204 217 0.0
6005 13.113967 -1.940333 37.974934 190 193 196 0.0
6006 22.918159 -10.473278 32.931877 142 150 151 0.0
6007 15.888005 -11.017067 37.853302 181 187 183 0.0
6008 98.155579 -2.824050 -35.734592 117 118 110 0.0
6009 -1.040157 4.702675 8.589956 185 183 180 0.0
6010 97.920105 -2.269866 -34.527065 165 165 158 0.0
6011 0.273299 1.531633 20.195606 115 116 118 0.0
6012 96.051880 -1.956639 -36.633930 148 154 156 0.0
6013 -1.819847 -4.990077 17.076744 20 28 37 0.0
6014 97.353203 4.617637 -34.115696 185 206 209 0.0
6015 -1.358424 2.214378 21.565376 148 156 165 0.0
6016 88.242996 13.715415 -30.215979 68 77 80 0.0
6017 2.255063 -4.735701 19.058447 148 149 149 0.0
6018 63.415909 10.304933 -44.063362 134 140 140 0.0
6019 15.982686 -7.777272 37.717144 99 104 100 0.0
6020 70.518219 12.948408 -26.462103 89 93 95 0.0
6021 -4.596879 -1.298419 18.752953 163 176 188 0.0
6022 24.353054 4.796418 -0.052386 191 172 133 0.0
6023 -5.364238 -0.646644 17.351582 149 163 175 0.0
6024 24.187634 4.775862 0.193128 191 173 136 0.0
6025 2.352854 -0.538704 29.028784 235 227 217 0.0
6026 24.401880 5.035408 -0.866901 148 135 105 0.0
6027 13.295397 -1.101599 39.916264 191 191 187 0.0
6028 20.926422 5.458628 -3.279382 213 195 170 0.0
6029 0.828410 4.348363 14.663473 95 94 91 0.0
6030 6.910150 6.288141 13.146996 175 167 145 0.0
6031 -3.595605 0.524601 20.280792 141 154 164 0.0
6032 19.159084 5.347213 -5.301870 215 196 169 0.0
6033 1.996244 0.679422 28.361040 188 184 177 0.0
6034 19.560160 5.428300 0.921386 145 131 119 0.0
6035 0.848245 2.403281 29.896494 195 195 195 0.0
6036 18.983854 7.402625 -20.170876 37 37 31 0.0
6037 26.056141 3.883562 39.021667 183 188 184 0.0
6038 24.047350 10.122187 -23.679903 142 136 126 0.0
6039 -6.826907 2.803106 15.633971 165 171 177 0.0
6040 17.087734 5.620439 -2.399205 172 159 136 0.0
6041 -6.378471 0.241202 16.219122 160 167 179 0.0
6042 8.067079 1.908326 21.961708 161 136 97 0.0
6043 10.966167 7.496962 28.287685 176 184 187 0.0
6044 30.242208 -11.884090 -30.066301 128 121 95 0.0
6045 1.195705 4.539025 13.115609 206 212 217 0.0
6046 73.146988 9.868015 -10.971854 138 121 82 0.0
6047 1.148777 1.291673 27.027493 175 173 169 0.0
6048 2.377235 2.582941 24.932289 0 0 0 0.0
6049 62.134830 20.916986 -38.436001 13 13 9 0.0
6050 11.438661 12.657848 28.633770 169 169 164 0.0
6051 21.364838 5.439198 -0.128988 219 199 170 0.0
6052 -0.574360 4.903783 9.242184 165 174 180 0.0
6053 19.233526 5.412952 -3.744152 211 194 166 0.0
6054 6.168508 -4.308662 26.474350 181 191 195 0.0
6055 -0.674383 -0.212478 24.676544 170 174 178 0.0
6056 10.103941 3.770747 34.958691 145 105 86 0.0
6057 20.600763 5.646382 0.977018 98 98 89 0.0
6058 1.122154 -0.328033 27.024258 205 202 191 0.0
6059 0.611771 2.831167 19.397287 199 201 201 0.0
6060 38.386208 4.310964 -1.606777 255 255 255 0.0
6061 -0.938618 4.067678 15.306654 20 25 32 0.0
6062 72.515137 10.677093 -12.099579 129 115 73 0.0
6063 3.663105 6.644270 16.288305 174 186 200 0.0
6064 100.670677 2.413059 -29.269505 112 103 82 0.0
6065 -1.570550 4.701133 9.973601 116 111 106 0.0
6066 99.782822 4.616989 -30.866381 70 127 126 0.0
6067 -1.239251 4.722831 8.236098 187 185 183 0.0
6068 100.341454 4.636643 -31.070732 70 127 126 0.0
6069 -0.221547 5.752190 10.198167 81 88 92 0.0
6070 70.336891 25.192633 -41.052418 23 20 18 0.0
6071 5.694292 -5.287157 19.752476 135 158 179 0.0
6072 19.438494 11.945210 -24.928236 148 148 127 0.0
6073 2.854029 4.543975 14.660898 166 166 163 0.0
6074 78.106667 2.701021 -62.830406 152 127 88 0.0
6075 -1.034904 4.729298 8.572515 187 187 184 0.0
6076 49.049850 6.538339 2.242770 177 185 191 0.0
6077 -4.749739 4.601040 13.750401 147 139 117 0.0
6078 -7.060456 2.499899 13.083213 189 189 189 0.0
6079 -7.060456 2.499899 13.083213 189 189 189 0.0
6080 31.630156 -6.202183 -1.643121 156 159 155 0.0
6081 10.247598 -1.921156 33.629505 182 188 192 0.0
6082 7.657873 5.767062 22.212475 175 186 196 0.0
6083 0.706750 1.950164 18.706396 191 190 185 0.0
6084 45.556747 2.600012 22.611664 171 152 126 0.0
6085 -3.814629 -1.654469 13.130693 162 169 171 0.0
6086 23.436907 5.552602 6.864850 180 169 159 0.0
6087 3.498194 4.029479 18.074600 177 187 206 0.0
6088 99.530022 -2.219613 -34.360939 135 135 130 0.0
6089 3.252695 -4.705090 15.891034 60 82 111 0.0
6090 96.998604 4.357267 -32.748127 182 198 204 0.0
6091 0.514611 -4.491604 15.391875 115 117 117 0.0
6092 0.509557 -4.533867 15.474958 115 117 117 0.0
6093 -3.754415 -4.388012 15.252589 116 121 129 0.0
6094 3.429512 -4.285325 16.917719 123 122 120 0.0
6095 -1.297233 -5.341929 20.133053 6 12 17 0.0
6096 24.600332 5.115016 4.540123 219 206 187 0.0
6097 5.048879 -4.269105 19.151291 129 125 133 0.0
6098 45.772999 11.826509 -41.391819 28 17 2 0.0
6099 4.713825 -4.464191 19.717657 129 126 129 0.0
6100 27.997929 -4.185277 -28.515471 101 92 70 0.0
6101 -3.926337 -4.327362 19.089407 94 103 113 0.0
6102 -5.071906 -3.800291 18.155964 129 138 149 0.0
6103 0.954058 -4.248387 23.068510 79 81 76 0.0
6104 22.315826 5.814800 -9.049097 49 44 40 0.0
6105 -4.004754 -0.985397 19.367012 152 166 178 0.0
6106 0.795413 -0.295724 26.714533 191 187 178 0.0
6107 25.098740 11.694431 -9.841430 33 29 20 0.0
6108 4.143349 -1.079705 -1.687967 0 0 0 0.0
6109 16.529879 2.088194 4.870786 230 222 212 0.0
6110 32.473148 8.357566 -13.959873 41 41 41 0.0
6111 0.969192 2.177101 27.001837 167 167 167 0.0
6112 0.082799 2.114968 18.496159 159 164 171 0.0
6113 72.097572 7.885604 -8.287317 141 127 108 0.0
6114 -4.778722 2.596612 18.609169 151 163 171 0.0
6115 74.819954 10.716016 -11.120195 98 81 37 0.0
6116 0.912655 2.964375 27.205032 200 201 201 0.0
6117 75.198860 11.134956 -11.551966 156 139 90 0.0
6118 -3.724568 2.969635 20.800282 137 150 163 0.0
6119 26.377167 2.710125 12.473067 228 225 224 0.0
6120 -6.329431 3.015040 16.280584 141 150 156 0.0
6121 20.431492 4.825567 31.702427 153 153 148 0.0
6122 71.470589 17.897274 -27.402575 62 64 64 0.0
6123 1.902037 4.764356 16.331821 178 179 182 0.0
6124 39.920525 14.688478 -37.204338 141 145 146 0.0
6125 10.774923 7.375258 28.149107 148 156 162 0.0
6126 19.966221 5.411486 -3.257871 209 193 164 0.0
6127 -1.410535 4.696944 8.571443 176 172 165 0.0
6128 19.114643 5.312117 -1.027619 184 167 141 0.0
6129 -1.407301 4.693114 8.564362 176 172 165 0.0
6130 22.039768 9.900527 -21.474642 70 61 51 0.0
6131 -1.532989 4.693151 8.228026 151 147 142 0.0
6132 18.190245 10.243304 -18.692608 55 49 41 0.0
6133 -1.532824 4.703397 8.183613 192 186 181 0.0
6134 -1.608229 -3.987938 22.979172 146 151 157 0.0
6135 42.959602 -3.760841 22.732927 119 101 69 0.0
6136 -3.668905 -0.399009 20.013451 158 170 181 0.0
6137 0.907190 1.758577 26.853212 200 200 197 0.0
6138 24.798964 3.243978 0.427009 64 60 49 0.0
6139 -4.980223 2.511178 18.264927 155 164 173 0.0
6140 24.605534 5.346103 -1.703890 233 221 198 0.0
6141 -1.940060 2.876733 16.828241 135 145 155 0.0
6142 20.665833 5.156538 31.576519 135 140 134 0.0
6143 20.936449 5.187407 32.050556 135 140 134 0.0
6144 74.790184 13.834205 -23.707460 31 41 47 0.0
6145 -3.797321 4.731302 14.417223 67 68 71 0.0
6146 -1.984044 4.546126 12.508007 85 84 87 0.0
6147 1.185092 4.689377 12.724711 203 203 201 0.0
6148 65.844261 22.924404 -43.172165 12 12 12 0.0
6149 1.185965 4.801236 13.105733 203 203 201 0.0
6150 27.454378 4.675119 -3.642638 251 248 236 0.0
6151 -1.057361 4.850142 8.525738 105 114 121 0.0
6152 -3.000947 -1.992288 20.985916 138 149 160 0.0
6153 23.382565 -8.695810 -24.604452 89 85 74 0.0
6154 -3.008971 -1.999919 21.017254 138 149 160 0.0
6155 -1.935886 4.673309 11.388479 193 189 182 0.0
6156 23.471846 12.469538 -6.795988 183 161 119 0.0
6157 -8.281195 1.367979 13.450448 189 187 183 0.0
6158 -8.225986 1.392048 14.253286 182 182 182 0.0
6159 38.773891 -13.091239 -36.878967 159 152 136 0.0
6160 3.390447 4.781877 15.229937 173 177 184 0.0
6161 3.999994 8.751108 16.542019 154 166 176 0.0
6162 -2.098226 4.278827 12.296849 21 25 28 0.0
6163 73.381065 10.833185 -13.097578 146 133 103 0.0
6164 0.347259 4.261863 13.670757 18 19 24 0.0
6165 24.746161 4.979164 -5.718508 47 37 25 0.0
6166 -0.369213 4.655557 10.888220 195 194 191 0.0
6167 50.761715 17.164589 -39.128647 9 6 3 0.0
6168 -1.186110 4.747532 8.515315 191 189 185 0.0
6169 55.967918 18.515968 -30.946314 59 61 55 0.0
6170 -1.974383 4.736941 8.338990 186 181 175 0.0
6171 20.838577 5.419229 -4.558263 209 191 162 0.0
6172 3.295418 4.477651 15.667672 203 203 207 0.0
6173 19.654835 7.004362 -20.765381 68 68 65 0.0
6174 10.344456 -7.349059 34.685295 181 191 197 0.0
6175 19.406412 7.456188 -20.440351 92 90 84 0.0
6176 -1.571486 4.725052 8.290174 145 140 135 0.0
6177 2.682910 -4.529512 14.932285 227 239 252 0.0
6178 3.360206 -4.677491 15.994547 71 96 124 0.0
6179 17.945402 5.350543 -1.158321 169 156 140 0.0
6180 2.728325 -4.484292 18.111359 143 145 145 0.0
6181 -5.434346 0.584242 17.850079 147 158 168 0.0
6182 29.968897 6.134515 -8.218478 136 137 140 0.0
6183 31.561914 6.423916 -8.601617 136 137 140 0.0
6184 0.772850 1.286868 26.561359 174 174 171 0.0
6185 -5.138259 1.676966 18.130796 150 162 172 0.0
6186 -4.885942 2.460364 18.855726 150 162 170 0.0
6187 27.302549 3.116360 -1.371049 126 128 121 0.0
6188 24.923250 3.425483 39.671329 170 168 161 0.0
6189 3.253689 3.425569 31.673809 174 171 166 0.0
6190 22.888119 5.619025 5.010783 165 152 141 0.0
6191 0.616917 3.428204 17.960505 157 164 174 0.0
6192 11.640015 4.496282 28.128042 158 159 164 0.0
6193 5.207684 4.162807 21.873533 187 178 176 0.0
6194 9.379268 4.482797 23.952030 205 213 225 0.0
6195 98.694885 3.346227 -30.003363 175 177 174 0.0
6196 -2.152622 4.142886 15.799679 185 189 193 0.0
6197 5.349390 4.836406 17.908960 173 182 192 0.0
6198 51.089134 11.775562 -30.856541 41 31 16 0.0
6199 5.365957 4.849582 17.963079 173 182 192 0.0
6200 0.136020 4.284670 12.830585 87 89 84 0.0
6201 52.271721 13.160770 -25.296219 25 23 16 0.0
6202 -0.341755 4.308201 12.702185 79 83 88 0.0
6203 6.104998 5.958976 19.970413 173 182 191 0.0
6204 22.849344 5.295646 -1.979798 209 200 171 0.0
6205 18.875803 5.166628 -4.448311 213 194 165 0.0
6206 0.701386 4.683009 12.401769 194 192 189 0.0
6207 18.544291 5.412864 -4.086175 180 164 135 0.0
6208 3.110802 6.528595 15.361847 147 158 168 0.0
6209 18.546394 5.415136 -4.087505 180 164 135 0.0
6210 -8.285245 4.171368 12.687295 151 148 145 0.0
6211 23.699129 5.578521 -6.058184 111 89 56 0.0
6212 2.380706 4.407075 16.226606 81 87 93 0.0
6213 25.592892 5.166329 9.115993 185 176 165 0.0
6214 -1.136180 4.381182 16.423878 81 87 93 0.0
6215 11.506265 6.840447 28.502502 183 188 192 0.0
6216 25.530289 5.213175 9.687769 211 208 204 0.0
6217 23.036110 13.435061 4.430605 122 114 99 0.0
6218 -7.302261 3.416821 14.689747 179 181 181 0.0
6219 7.479159 5.854890 22.142178 122 133 142 0.0
6220 23.816673 5.432898 2.512080 216 205 187 0.0
6221 0.900705 4.499794 13.972778 227 229 239 0.0
6222 22.076708 5.396117 -3.332012 198 180 152 0.0
6223 -2.994237 4.626269 10.831626 137 131 122 0.0
6224 19.301613 5.235974 1.074372 150 141 131 0.0
6225 31.783674 -0.904290 30.288687 218 226 238 0.0
6226 18.952026 5.526005 0.333644 109 99 86 0.0
6227 -4.287642 0.226432 19.226738 121 130 140 0.0
6228 -2.994237 4.626269 10.831626 137 131 122 0.0
6229 19.406427 5.489196 1.011544 169 159 147 0.0
6230 -2.707454 4.660735 10.978880 132 127 121 0.0
6231 17.225067 5.378592 -2.171152 87 72 52 0.0
6232 3.791018 -6.842802 21.865347 82 68 60 0.0
6233 -7.394231 4.610294 12.585206 203 195 178 0.0
6234 44.601189 0.479428 25.169424 211 188 152 0.0
6235 -5.428905 4.711090 8.889533 177 167 155 0.0
6236 -4.420012 4.773016 7.770704 161 152 138 0.0
6237 28.337725 5.166892 9.148570 219 210 200 0.0
6238 -4.193451 4.725319 7.303416 195 187 173 0.0
6239 1.909224 6.085029 12.281298 147 156 163 0.0
6240 40.448013 14.340085 -37.518661 175 180 186 0.0
6241 -4.996466 4.657159 11.477603 138 129 115 0.0
6242 55.132957 -3.463134 18.124548 118 108 91 0.0
6243 -3.451677 4.766381 7.312973 196 188 177 0.0
6244 26.957731 5.425877 2.946823 155 146 128 0.0
6245 -1.073172 0.415895 23.541422 176 181 187 0.0
6246 35.671242 -1.863452 -37.295879 22 16 15 0.0
6247 15.433099 4.326771 33.893650 201 198 187 0.0
6248 -8.249023 4.183891 12.944152 153 149 146 0.0
6249 21.736368 5.568206 -6.208883 208 190 163 0.0
6250 28.300344 -5.116435 -2.341323 153 155 152 0.0
6251 20.510935 10.203173 -5.837590 122 110 79 0.0
6252 6.370084 -6.506762 23.537895 167 173 176 0.0
6253 -3.882745 4.381678 13.844173 10 12 15 0.0
6254 19.573267 0.412175 -20.599497 59 60 56 0.0
6255 -8.453819 4.456537 11.957049 183 178 167 0.0
6256 80.661003 9.957981 -21.287521 198 214 224 0.0
6257 28.925447 -4.079026 26.550098 248 253 255 0.0
6258 -8.750550 4.917284 12.042859 198 190 176 0.0
6259 41.412415 -1.566728 18.007088 187 175 146 0.0
6260 -4.409404 4.643294 9.343575 194 186 176 0.0
6261 26.612774 5.494786 3.865057 189 183 177 0.0
6262 -8.177175 -1.290878 13.329676 181 169 148 0.0
6263 -4.727879 4.733973 7.671590 176 167 150 0.0
6264 22.548712 5.680546 -7.557962 198 178 147 0.0
6265 -2.854717 4.718951 7.478509 143 134 125 0.0
6266 26.908739 5.187994 -5.538630 117 108 96 0.0
6267 24.187178 4.775068 0.192783 192 173 137 0.0
6268 -4.124767 -3.229335 13.928159 77 84 90 0.0
6269 68.374435 -11.741211 14.603017 130 130 125 0.0
6270 -5.041111 4.624245 11.017087 172 164 153 0.0
6271 53.920856 -0.821804 19.117252 183 170 147 0.0
6272 26.983431 13.397151 23.050003 68 52 19 0.0
6273 -3.227225 1.725499 20.662401 146 157 167 0.0
6274 57.140213 -3.566157 19.483097 123 112 97 0.0
6275 -8.851267 0.689016 12.326241 185 176 169 0.0
6276 85.095276 6.011971 -0.436375 245 246 251 0.0
6277 11.651241 7.092795 28.746460 99 104 108 0.0
6278 82.188126 13.623382 -38.033924 150 174 189 0.0
6279 -4.140099 4.756523 7.620677 194 186 172 0.0
6280 33.586273 5.552071 8.971063 202 192 187 0.0
6281 -6.160223 -1.751100 9.524385 93 93 88 0.0
6282 23.639549 5.717603 -9.247468 186 168 144 0.0
6283 11.117167 7.129207 28.269773 116 120 121 0.0
6284 25.554066 5.200793 6.452479 211 200 181 0.0
6285 10.638969 -2.777815 18.125288 172 174 165 0.0
6286 20.211279 5.461901 -0.081299 216 199 174 0.0
6287 3.252656 -5.002091 16.214590 88 94 104 0.0
6288 7.570779 2.728848 35.677700 199 192 173 0.0
6289 49.281883 7.290872 -39.676861 78 65 50 0.0
6290 -0.095053 1.900764 19.223164 162 165 167 0.0
6291 17.688957 5.395614 -3.881119 210 193 165 0.0
6292 0.166502 4.671188 11.967508 200 198 199 0.0
6293 19.192785 5.533981 0.506220 175 165 152 0.0
6294 88.929001 -3.185063 20.913347 228 233 236 0.0
6295 -6.929306 3.627779 15.570794 137 138 141 0.0
6296 1.394457 -4.913188 16.493494 91 89 88 0.0
6297 17.263290 4.807985 3.139560 180 171 153 0.0
6298 -3.039032 -4.385428 16.092125 116 122 130 0.0
6299 90.133591 14.487789 -26.798649 216 228 238 0.0
6300 2.177118 4.512867 16.119091 54 55 54 0.0
6301 45.855587 10.412377 -41.266647 26 15 0 0.0
6302 42.560513 2.080661 26.381905 154 156 137 0.0
6303 -5.316618 0.493367 17.653261 172 185 195 0.0
6304 27.461132 4.317546 -4.151883 228 223 196 0.0
6305 25.056850 5.512908 -0.113396 161 145 123 0.0
6306 -0.747844 4.674361 10.015648 184 179 165 0.0
6307 21.172047 6.885016 1.775852 175 164 139 0.0
6308 42.327034 5.471071 17.640293 98 93 87 0.0
6309 0.539268 1.594225 26.650705 165 166 166 0.0
6310 18.012619 5.428863 -4.386287 185 166 138 0.0
6311 -3.827964 -1.441931 13.123067 169 174 180 0.0
6312 -3.807624 3.121882 21.215939 153 164 175 0.0
6313 22.495937 2.406523 -22.577612 99 98 85 0.0
6314 -4.418355 4.709816 10.210058 110 101 79 0.0
6315 6.117671 3.664084 30.943533 173 171 149 0.0
6316 6.948072 4.359096 28.375536 170 153 143 0.0
6317 43.897594 5.132965 17.401276 215 198 170 0.0
6318 31.873466 5.285162 7.641878 180 171 161 0.0
6319 -4.211065 4.653129 10.940939 148 142 126 0.0
6320 3.240258 3.912396 22.041718 188 187 193 0.0
6321 23.716469 10.038895 -22.604757 140 130 117 0.0
6322 -8.548419 4.212770 14.851328 177 175 171 0.0
6323 46.228226 2.357282 23.921530 167 150 122 0.0
6324 12.221011 9.020185 19.239939 144 145 133 0.0
6325 94.883934 -4.627674 9.404133 221 238 244 0.0
6326 1.752271 -3.869953 17.570055 89 90 93 0.0
6327 -1.587431 4.587703 11.830222 148 140 123 0.0
6328 24.129932 5.096076 7.243572 205 193 180 0.0
6329 -7.717190 4.040164 14.628869 169 169 165 0.0
6330 5.538383 -5.021742 27.317635 123 121 114 0.0
6331 -2.325008 4.687145 8.609912 191 186 177 0.0
6332 19.275398 7.580443 -20.784632 54 54 49 0.0
6333 5.661506 4.661687 18.627930 200 200 199 0.0
6334 19.216829 6.089906 -19.970270 30 32 32 0.0
6335 1.975063 0.244364 28.207449 240 235 226 0.0
6336 14.257850 14.252162 33.104271 120 113 88 0.0
6337 20.996994 -4.873704 -23.988033 61 52 29 0.0
6338 14.720324 13.884214 33.879841 105 101 86 0.0
6339 -0.310479 4.689700 11.278527 192 192 190 0.0
6340 36.118362 -9.226005 34.640633 116 131 139 0.0
6341 4.637766 -4.100811 20.241014 127 127 131 0.0
6342 53.041298 10.821951 -36.531563 163 155 138 0.0
6343 4.418494 -3.234914 17.865471 185 189 194 0.0
6344 25.068344 4.634066 -5.136894 172 163 136 0.0
6345 -3.395494 -4.395427 16.319685 94 100 106 0.0
6346 19.933826 4.541844 32.418274 95 95 95 0.0
6347 93.743111 5.578401 -39.497623 60 70 75 0.0
6348 7.210849 4.557123 23.701660 147 130 110 0.0
6349 77.244690 -7.726949 -4.996113 76 72 63 0.0
6350 -4.847089 -1.587739 18.589102 165 175 181 0.0
6351 16.065952 -8.322051 37.486092 118 122 119 0.0
6352 110.348396 -3.636827 7.174272 115 132 137 0.0
6353 -9.008196 1.124425 12.274777 205 197 189 0.0
6354 8.333334 4.623641 22.318691 138 145 161 0.0
6355 75.900017 8.837255 -29.233717 222 222 214 0.0
6356 5.492356 4.541246 20.501524 94 87 84 0.0
6357 -8.462810 2.276308 11.727631 194 190 185 0.0
6358 18.715919 5.463256 -2.633589 208 192 167 0.0
6359 -9.378219 3.286246 13.607790 183 181 179 0.0
6360 17.369524 5.345258 -1.922054 108 94 74 0.0
6361 -9.444435 3.303231 13.684926 183 181 179 0.0
6362 -9.312286 4.098607 14.062908 153 152 150 0.0
6363 -5.481889 4.408958 14.816903 70 70 70 0.0
6364 75.692635 10.771333 -30.475679 137 137 123 0.0
6365 -0.161053 5.105378 12.858576 126 126 126 0.0
6366 -7.201405 4.581137 10.370282 201 192 178 0.0
6367 52.940575 -2.465879 19.737459 176 162 129 0.0
6368 -1.709413 -4.569621 17.372562 75 73 67 0.0
6369 5.026630 4.727014 18.318821 212 211 211 0.0
6370 26.670040 4.969808 -2.032498 59 50 33 0.0
6371 2.224243 4.618534 16.157288 92 93 99 0.0
6372 8.691486 0.552917 -1.117261 0 0 0 0.0
6373 9.089815 2.356506 13.510311 177 171 156 0.0
6374 22.763775 5.305295 3.625190 208 199 182 0.0
6375 -0.224131 5.765883 9.605865 161 166 174 0.0
6376 -6.162247 -1.989633 9.245918 158 158 150 0.0
